nan,nan,nan,nan,nan,nan,nan,nan,nan,nan,nan,nan,nan,nan,1.756768000000000029e+03,1.438598999999999933e+03,1.267002999999999929e+03,1.377625000000000000e+03,1.432813000000000102e+03,1.285108999999999924e+03,1.104898999999999887e+03,1.228905999999999949e+03,1.282179000000000087e+03,1.477943999999999960e+03,1.442160000000000082e+03,1.659191000000000031e+03,1.608445999999999913e+03,1.500961999999999989e+03,1.122688000000000102e+03,1.089766000000000076e+03,8.851838000000000193e+02,8.176240999999999985e+02,7.694628000000000156e+02,6.032595999999999776e+02,5.501743999999999915e+02,4.662751000000000090e+02,5.827749999999999773e+02,5.226140000000000327e+02,4.564288999999999987e+02,4.637363000000000284e+02,4.667074999999999818e+02,4.077312000000000012e+02,4.370289000000000215e+02,3.814562000000000239e+02,3.877459000000000060e+02,3.386046000000000049e+02,3.717744000000000142e+02,2.943885999999999967e+02,2.782846999999999866e+02,2.733732999999999720e+02,2.564494000000000256e+02,2.442117000000000075e+02,2.946578000000000088e+02,2.744384999999999764e+02,2.899103999999999814e+02,2.615588000000000193e+02,2.663079000000000178e+02,2.297812999999999874e+02,2.117279000000000053e+02,1.997083000000000084e+02,2.063814999999999884e+02,2.325261999999999887e+02,2.094992000000000019e+02,2.067745999999999924e+02,1.999653999999999883e+02,1.842642999999999915e+02,1.642807999999999993e+02,1.673257000000000119e+02,1.646511000000000138e+02,1.447519000000000062e+02,1.633207999999999913e+02,1.752452000000000112e+02,1.702045999999999992e+02,1.580357999999999947e+02,1.548834999999999980e+02,1.315677000000000021e+02,1.053550000000000040e+02,9.467499999999999716e+01,1.121183999999999941e+02,1.174878999999999962e+02,1.255014000000000038e+02,1.775739000000000090e+02,2.185577999999999861e+02,2.462281000000000120e+02,2.651573000000000206e+02,2.682085999999999899e+02,2.617420000000000186e+02,2.497642999999999915e+02,2.566641999999999939e+02,2.773790999999999940e+02,2.908523999999999887e+02,3.089257999999999811e+02,2.824012999999999920e+02,3.778725000000000023e+02,3.948134999999999764e+02,3.514848000000000070e+02,3.313029000000000224e+02,3.267585000000000264e+02,3.941322000000000116e+02,4.620690999999999917e+02,5.416547000000000480e+02,5.800670999999999822e+02,6.122957000000000107e+02,6.476470000000000482e+02,6.629722000000000435e+02,7.133591000000000122e+02,7.523055000000000518e+02,6.686231999999999971e+02,8.173400000000000318e+02,7.880108000000000175e+02,8.205172999999999774e+02,8.760818000000000438e+02,9.514604000000000497e+02,1.025476000000000113e+03,8.879063999999999623e+02,8.995384999999999991e+02,9.014017000000000053e+02,9.855232999999999493e+02,1.003544999999999959e+03,1.203971999999999980e+03,1.389394999999999982e+03,1.525202999999999975e+03,1.619424999999999955e+03,1.694118999999999915e+03,1.712480999999999995e+03,1.758499000000000024e+03,1.856584000000000060e+03,1.929795000000000073e+03,1.888387999999999920e+03,1.803962999999999965e+03,1.875561999999999898e+03,2.014959000000000060e+03,1.852866999999999962e+03,1.957531999999999925e+03,1.939737000000000080e+03,1.613634000000000015e+03,1.782412000000000035e+03,1.921859999999999900e+03,1.934313000000000102e+03,nan,nan,nan,nan,nan,nan
nan,nan,nan,nan,nan,nan,nan,nan,nan,nan,nan,nan,nan,nan,1.790414999999999964e+03,1.345550999999999931e+03,1.504854000000000042e+03,1.707316000000000031e+03,1.592998000000000047e+03,1.364994999999999891e+03,1.143270999999999958e+03,1.157967000000000098e+03,1.094026000000000067e+03,1.230368999999999915e+03,1.353557000000000016e+03,1.647145999999999958e+03,1.898604000000000042e+03,1.647163000000000011e+03,1.466807999999999993e+03,1.114397999999999911e+03,1.048200000000000045e+03,8.007653999999999996e+02,7.379578999999999951e+02,7.553029000000000224e+02,5.367617999999999938e+02,5.161909000000000560e+02,4.598036999999999921e+02,4.245874999999999773e+02,4.159837999999999738e+02,4.746293999999999755e+02,4.484100999999999999e+02,4.103072000000000230e+02,4.407047000000000025e+02,4.291664000000000101e+02,3.801995000000000005e+02,3.389748999999999910e+02,3.546370000000000005e+02,3.439861000000000217e+02,2.684644999999999868e+02,2.458867999999999938e+02,2.625713000000000079e+02,2.833528000000000020e+02,2.939759999999999991e+02,2.706370000000000005e+02,2.381443999999999903e+02,2.631438999999999737e+02,2.448232000000000141e+02,2.179391999999999996e+02,2.185227999999999895e+02,2.261430000000000007e+02,2.214497000000000071e+02,1.772583999999999946e+02,1.945629000000000133e+02,1.822340000000000089e+02,1.870499000000000080e+02,1.777276999999999987e+02,1.611946000000000083e+02,1.783913000000000011e+02,1.546196999999999946e+02,1.584891000000000076e+02,1.323457999999999970e+02,1.531485000000000127e+02,1.490438000000000045e+02,1.421161999999999921e+02,1.383924000000000092e+02,1.700433999999999912e+02,9.841182999999999481e+01,1.037646000000000015e+02,1.087637000000000000e+02,1.043619000000000057e+02,1.369635000000000105e+02,1.869553999999999974e+02,2.362827000000000055e+02,2.563783999999999992e+02,2.741401000000000181e+02,2.902952000000000226e+02,2.942554000000000087e+02,2.886646999999999821e+02,2.973951999999999884e+02,3.660697999999999865e+02,3.838808999999999969e+02,4.202660999999999945e+02,4.253240000000000123e+02,3.133967999999999847e+02,4.464592000000000098e+02,4.691829999999999927e+02,4.344716999999999985e+02,4.051193000000000097e+02,3.577350999999999885e+02,5.470141999999999598e+02,5.315936000000000377e+02,5.022203000000000088e+02,5.888282000000000380e+02,6.485475000000000136e+02,6.761960000000000264e+02,7.431852000000000089e+02,7.607679000000000542e+02,7.860037999999999556e+02,7.537025999999999613e+02,7.703024000000000342e+02,7.654008000000000038e+02,8.472210000000000036e+02,9.039279000000000224e+02,1.022438999999999965e+03,1.052525000000000091e+03,1.084702999999999975e+03,1.148806000000000040e+03,1.098441000000000031e+03,9.914451999999999998e+02,1.086987000000000080e+03,1.234093000000000075e+03,1.479773999999999887e+03,1.588942999999999984e+03,1.766096999999999980e+03,1.880903000000000020e+03,1.871624000000000024e+03,2.017714999999999918e+03,1.946448000000000093e+03,1.850628999999999905e+03,1.753381000000000085e+03,1.866011999999999944e+03,1.716738000000000056e+03,1.785751999999999953e+03,1.863607999999999947e+03,1.828586000000000013e+03,1.550101000000000113e+03,1.798915999999999940e+03,1.899657999999999902e+03,1.856153999999999996e+03,nan,nan,nan,nan,nan,nan
nan,nan,nan,nan,nan,nan,nan,nan,nan,nan,nan,nan,nan,nan,nan,1.470315000000000055e+03,1.827962999999999965e+03,1.936467000000000098e+03,1.687558999999999969e+03,1.492078999999999951e+03,1.360559999999999945e+03,1.031721000000000004e+03,1.255733999999999924e+03,1.455234999999999900e+03,1.558955999999999904e+03,1.700869999999999891e+03,1.811335000000000036e+03,1.736752999999999929e+03,1.799633000000000038e+03,1.479713999999999942e+03,1.078803000000000111e+03,9.025357999999999947e+02,6.453201000000000249e+02,6.867327999999999975e+02,6.144691000000000258e+02,5.714638999999999669e+02,5.051743000000000166e+02,5.443359000000000378e+02,4.615930999999999926e+02,4.829812000000000012e+02,4.608419000000000096e+02,4.393260999999999967e+02,5.050835999999999899e+02,4.513928999999999974e+02,3.925844000000000165e+02,3.770403999999999769e+02,3.434252999999999929e+02,3.390778999999999996e+02,2.685269999999999868e+02,2.857654999999999745e+02,3.295160999999999945e+02,2.825901999999999816e+02,2.860754999999999768e+02,2.640298000000000229e+02,2.371238999999999919e+02,2.824730999999999881e+02,2.428309000000000140e+02,2.300324999999999989e+02,2.102531999999999925e+02,2.117101999999999862e+02,2.222557999999999936e+02,1.904963999999999942e+02,1.839124999999999943e+02,1.653651999999999873e+02,1.584130999999999858e+02,1.480874000000000024e+02,1.397500000000000000e+02,1.542985999999999933e+02,1.446978000000000009e+02,1.575323999999999955e+02,1.342764999999999986e+02,1.198191999999999950e+02,1.398196000000000083e+02,1.537638000000000034e+02,1.595535999999999888e+02,1.340827999999999918e+02,9.897728999999999644e+01,9.907058999999999571e+01,1.115255999999999972e+02,8.849500000000000455e+01,1.394853999999999985e+02,2.023781999999999925e+02,2.285441999999999894e+02,2.610221000000000231e+02,2.885239000000000260e+02,2.936256999999999948e+02,3.404605999999999995e+02,3.412121000000000208e+02,4.099408999999999992e+02,4.412744000000000142e+02,4.058639999999999759e+02,4.189519000000000233e+02,4.397669999999999959e+02,4.672108999999999810e+02,3.959725000000000250e+02,4.348466000000000236e+02,4.725067999999999984e+02,5.170736000000000558e+02,5.117644000000000233e+02,4.102101000000000113e+02,6.124112000000000080e+02,6.236983000000000175e+02,6.204080999999999904e+02,6.368020999999999958e+02,6.611254000000000133e+02,7.471607000000000198e+02,7.263038999999999987e+02,7.824530999999999494e+02,8.562172000000000480e+02,8.650806999999999789e+02,8.328242999999999938e+02,9.172921000000000049e+02,8.772931999999999562e+02,1.013655999999999949e+03,1.040538999999999987e+03,1.037826000000000022e+03,1.133208000000000084e+03,1.166057999999999993e+03,1.282192999999999984e+03,1.271892000000000053e+03,1.185006000000000085e+03,1.300321999999999889e+03,1.343172000000000025e+03,1.476392000000000053e+03,1.586490000000000009e+03,1.770002999999999929e+03,1.843680000000000064e+03,1.825696999999999889e+03,1.644288999999999987e+03,1.691759999999999991e+03,1.721778000000000020e+03,1.724388999999999896e+03,1.879034000000000106e+03,1.771676999999999907e+03,1.659539999999999964e+03,1.527403999999999996e+03,1.802390000000000100e+03,1.876013999999999896e+03,nan,nan,nan,nan,nan,nan,nan
nan,nan,nan,nan,nan,nan,nan,nan,nan,nan,nan,nan,nan,nan,1.631780999999999949e+03,1.826121000000000095e+03,1.506059999999999945e+03,1.705108999999999924e+03,1.749814000000000078e+03,1.641548999999999978e+03,1.431056000000000040e+03,1.136619999999999891e+03,1.087678000000000111e+03,1.167903999999999996e+03,1.379307000000000016e+03,1.540960000000000036e+03,1.644182000000000016e+03,1.389076000000000022e+03,1.336218000000000075e+03,1.394330999999999904e+03,1.205990999999999985e+03,8.624646999999999935e+02,6.604724999999999682e+02,6.175457999999999856e+02,6.454070000000000391e+02,6.038703000000000429e+02,6.112128000000000156e+02,4.569458999999999946e+02,5.634459000000000515e+02,4.216245000000000118e+02,4.078903999999999996e+02,5.008869000000000256e+02,4.266399000000000115e+02,4.513639999999999759e+02,3.488643999999999892e+02,3.537832999999999970e+02,2.937869000000000028e+02,2.575776999999999930e+02,2.603161000000000058e+02,3.076619000000000028e+02,2.763852999999999724e+02,2.635643999999999778e+02,2.594970999999999890e+02,2.330057999999999936e+02,2.196793000000000120e+02,2.154208999999999889e+02,2.252729999999999961e+02,2.365934000000000026e+02,2.191460999999999899e+02,2.119244999999999948e+02,1.717569000000000017e+02,1.878300000000000125e+02,1.921247999999999934e+02,1.735672000000000139e+02,1.841388000000000034e+02,1.751863999999999919e+02,1.726740000000000066e+02,1.565460999999999956e+02,1.284122999999999877e+02,1.193427999999999969e+02,1.307115000000000009e+02,1.219224999999999994e+02,1.256529000000000025e+02,1.312539999999999907e+02,1.394390999999999963e+02,1.622921000000000049e+02,9.796361000000000274e+01,8.608109000000000322e+01,1.228262000000000000e+02,1.558203000000000031e+02,1.729046999999999912e+02,1.839816999999999894e+02,2.143035999999999888e+02,2.545557000000000016e+02,2.441346000000000060e+02,3.188750999999999749e+02,5.099823000000000093e+02,3.853326000000000136e+02,3.870754000000000019e+02,3.549003000000000156e+02,4.086879000000000133e+02,4.155747999999999820e+02,4.584014999999999986e+02,4.968158999999999992e+02,5.176263999999999896e+02,5.098014000000000010e+02,5.086992999999999938e+02,4.801093999999999937e+02,5.768392000000000053e+02,5.398535000000000537e+02,4.514227999999999952e+02,5.067006000000000085e+02,6.242639000000000351e+02,6.499782999999999902e+02,7.537116999999999507e+02,6.795587000000000444e+02,7.112095000000000482e+02,8.089800999999999931e+02,8.562780000000000200e+02,9.039147000000000389e+02,9.593976000000000113e+02,9.534406999999999925e+02,1.010162000000000035e+03,9.918864999999999554e+02,1.069073000000000093e+03,1.162700000000000045e+03,1.123756000000000085e+03,1.197265000000000100e+03,1.307445999999999913e+03,1.360820999999999913e+03,1.487613000000000056e+03,1.374452999999999975e+03,1.369188000000000102e+03,1.439185999999999922e+03,1.475767000000000053e+03,1.506153000000000020e+03,1.573472999999999956e+03,1.668173000000000002e+03,1.544096999999999980e+03,1.634852000000000089e+03,1.548521999999999935e+03,1.771376999999999953e+03,1.737102000000000089e+03,1.952391000000000076e+03,1.663166999999999916e+03,1.499834000000000060e+03,1.803532999999999902e+03,1.861676999999999907e+03,nan,nan,nan,nan,nan,nan,nan
nan,nan,nan,nan,nan,nan,nan,nan,nan,nan,nan,nan,nan,nan,1.698637999999999920e+03,1.747728000000000065e+03,1.483903999999999996e+03,1.430175999999999931e+03,1.289522999999999911e+03,1.504528999999999996e+03,1.406444999999999936e+03,1.260530999999999949e+03,9.891005000000000109e+02,9.279927999999999884e+02,1.263244999999999891e+03,1.226454999999999927e+03,1.546116999999999962e+03,1.309056000000000040e+03,1.027099999999999909e+03,8.617681000000000040e+02,7.749281999999999471e+02,5.784471999999999525e+02,5.364149999999999636e+02,6.572880000000000109e+02,6.256422000000000025e+02,6.076833000000000311e+02,5.617143999999999551e+02,3.795394999999999754e+02,3.595113000000000056e+02,3.807148000000000252e+02,3.306816999999999780e+02,3.210070000000000050e+02,3.095699000000000183e+02,3.918996999999999957e+02,4.208143000000000029e+02,3.061213000000000193e+02,2.932830999999999904e+02,3.203220999999999776e+02,3.176949000000000183e+02,2.507620000000000005e+02,2.666655999999999835e+02,2.349231000000000051e+02,2.510720000000000027e+02,2.630745999999999754e+02,2.323127000000000066e+02,2.205491000000000099e+02,2.023776000000000010e+02,2.029364999999999952e+02,2.219176999999999964e+02,2.353829000000000065e+02,2.051937000000000069e+02,1.917024999999999864e+02,1.518716000000000008e+02,1.725257000000000005e+02,1.719549000000000092e+02,1.715356999999999914e+02,1.505560999999999865e+02,1.358726000000000056e+02,1.294951000000000079e+02,1.432343999999999937e+02,1.243018000000000001e+02,1.058870000000000005e+02,1.283428000000000111e+02,1.064219999999999970e+02,1.407901999999999987e+02,1.337197999999999922e+02,1.227963000000000022e+02,1.090936999999999983e+02,1.204745999999999952e+02,8.343460000000000321e+01,1.396222999999999956e+02,1.735339999999999918e+02,2.077591999999999928e+02,2.575192999999999870e+02,3.331610999999999763e+02,3.342491999999999734e+02,3.728632000000000062e+02,3.011084000000000174e+02,3.440815000000000055e+02,3.613120000000000118e+02,4.160452999999999975e+02,4.413340999999999781e+02,4.773636000000000195e+02,5.135308999999999742e+02,5.404638999999999669e+02,5.648885999999999967e+02,5.729664999999999964e+02,5.742114000000000260e+02,5.935807999999999538e+02,6.060463999999999487e+02,5.357653000000000247e+02,6.633982999999999493e+02,5.987839000000000169e+02,7.015635999999999513e+02,7.089401000000000295e+02,7.806208000000000311e+02,8.325354999999999563e+02,8.484438999999999851e+02,8.275987999999999829e+02,8.654384000000000015e+02,8.686486999999999625e+02,8.956168000000000120e+02,1.003395999999999958e+03,1.050601000000000113e+03,1.152441000000000031e+03,1.168670000000000073e+03,1.233634999999999991e+03,1.299721000000000004e+03,1.316778000000000020e+03,1.392551999999999907e+03,1.474945999999999913e+03,1.643640000000000100e+03,1.566450000000000045e+03,1.509721000000000004e+03,1.507286000000000058e+03,1.465335000000000036e+03,1.485605000000000018e+03,1.514185999999999922e+03,1.530205999999999904e+03,1.507574000000000069e+03,1.609945999999999913e+03,1.695648999999999887e+03,1.766361000000000104e+03,1.822053000000000111e+03,1.536846000000000004e+03,1.497426999999999907e+03,1.666707000000000107e+03,1.840775000000000091e+03,nan,nan,nan,nan,nan,nan,nan
nan,nan,nan,nan,nan,nan,nan,nan,nan,nan,nan,nan,nan,1.693191000000000031e+03,1.367278999999999996e+03,1.395477000000000089e+03,1.341888999999999896e+03,1.171582000000000107e+03,1.152178000000000111e+03,1.080550999999999931e+03,1.158874000000000024e+03,9.823325999999999567e+02,1.298561999999999898e+03,9.415593999999999824e+02,9.507314999999999827e+02,1.262653999999999996e+03,1.341007000000000062e+03,1.094103000000000065e+03,8.112630000000000337e+02,8.509112999999999829e+02,8.593559000000000196e+02,9.806223999999999705e+02,6.434777000000000271e+02,4.809619999999999891e+02,4.624893000000000143e+02,5.324524000000000115e+02,4.686981999999999857e+02,5.586472999999999729e+02,4.137934000000000196e+02,4.437610000000000241e+02,4.255384999999999991e+02,3.550898000000000252e+02,4.570244000000000142e+02,3.505921999999999912e+02,3.252035999999999945e+02,3.115993000000000279e+02,3.360276999999999816e+02,3.180649999999999977e+02,2.720822000000000003e+02,2.727733000000000061e+02,2.285660000000000025e+02,2.256936000000000035e+02,2.135820999999999970e+02,2.311777999999999906e+02,2.135044000000000040e+02,2.022230999999999881e+02,2.146047000000000082e+02,1.878420999999999879e+02,1.965534000000000106e+02,2.034002999999999872e+02,1.995418999999999983e+02,1.772084999999999866e+02,1.731107000000000085e+02,1.455130000000000052e+02,1.696682000000000130e+02,1.613197000000000116e+02,1.470533000000000072e+02,1.583394000000000119e+02,1.435183000000000106e+02,1.349961000000000126e+02,1.173061000000000007e+02,1.010370000000000061e+02,1.140147000000000048e+02,1.286321000000000083e+02,1.330797000000000025e+02,1.224843000000000046e+02,1.417772999999999968e+02,1.061821999999999946e+02,7.786271999999999593e+01,1.469242999999999881e+02,1.710298999999999978e+02,1.963233999999999924e+02,2.472351999999999919e+02,1.999719000000000051e+02,2.751600000000000250e+02,3.628256999999999834e+02,2.417878000000000043e+02,3.347298000000000116e+02,3.380674000000000206e+02,3.796866999999999734e+02,4.212515000000000214e+02,4.550312999999999874e+02,4.864905999999999722e+02,4.742015999999999849e+02,4.684845000000000255e+02,5.210828000000000202e+02,5.474353999999999587e+02,6.034880000000000564e+02,6.019307000000000016e+02,6.600184000000000424e+02,6.871506000000000540e+02,7.088144999999999527e+02,5.637255000000000109e+02,6.431227999999999838e+02,7.037385000000000446e+02,7.622068000000000438e+02,8.437245000000000346e+02,9.106400999999999613e+02,9.440598999999999705e+02,8.939310000000000400e+02,9.627843000000000302e+02,1.005395999999999958e+03,1.027507000000000062e+03,1.074693999999999960e+03,1.150935999999999922e+03,1.178902000000000044e+03,1.220372000000000071e+03,1.249320999999999913e+03,1.383902000000000044e+03,1.441688000000000102e+03,1.557955999999999904e+03,1.681924999999999955e+03,1.848597999999999956e+03,1.830241999999999962e+03,1.578250999999999976e+03,1.487121000000000095e+03,1.470075000000000045e+03,1.484160000000000082e+03,1.488335000000000036e+03,1.509696999999999889e+03,1.585853000000000065e+03,1.735878999999999905e+03,1.599820999999999913e+03,1.527365999999999985e+03,1.499909000000000106e+03,1.498065000000000055e+03,1.706972999999999956e+03,nan,nan,nan,nan,nan,nan,nan,nan
nan,nan,nan,nan,nan,nan,nan,nan,nan,nan,nan,nan,nan,1.863917999999999893e+03,1.419957000000000107e+03,1.417257000000000062e+03,1.315250000000000000e+03,1.525223999999999933e+03,1.391480999999999995e+03,1.462617999999999938e+03,1.509152000000000044e+03,1.154262999999999920e+03,1.345386999999999944e+03,1.171416999999999916e+03,9.453914999999999509e+02,7.747195000000000391e+02,1.033896999999999935e+03,9.108345000000000482e+02,9.517187999999999874e+02,1.216990999999999985e+03,1.341368999999999915e+03,1.158623000000000047e+03,8.560457999999999856e+02,6.148533999999999651e+02,5.011412000000000262e+02,4.529771000000000072e+02,5.875928999999999860e+02,5.153351999999999862e+02,4.363029999999999973e+02,4.891216000000000008e+02,5.376022000000000389e+02,4.428297000000000025e+02,4.025237000000000194e+02,3.990074000000000183e+02,3.965760000000000218e+02,3.629485999999999990e+02,3.489112000000000080e+02,3.268711000000000126e+02,2.614984000000000037e+02,2.741782999999999788e+02,2.442293999999999983e+02,2.245685000000000002e+02,2.106075999999999908e+02,2.132529000000000110e+02,2.466913000000000125e+02,2.297608999999999924e+02,2.188640000000000043e+02,1.913754000000000133e+02,1.693468000000000018e+02,1.868826999999999998e+02,1.831770999999999958e+02,1.795769999999999982e+02,1.940167999999999893e+02,1.552093000000000131e+02,1.410405000000000086e+02,1.597617999999999938e+02,1.408520000000000039e+02,1.350127999999999986e+02,1.595482000000000085e+02,1.368586999999999989e+02,1.250504999999999995e+02,1.104745999999999952e+02,9.116298999999999353e+01,1.229286000000000030e+02,8.899974000000000274e+01,1.217095999999999947e+02,1.109292999999999978e+02,8.608419999999999561e+01,1.124784999999999968e+02,1.727402999999999906e+02,1.222455000000000069e+02,1.461547999999999945e+02,1.983737000000000137e+02,3.059058999999999742e+02,3.147160000000000082e+02,2.576576999999999771e+02,2.424609000000000094e+02,2.278743000000000052e+02,2.568929999999999723e+02,2.733371000000000208e+02,3.019644000000000119e+02,3.443038999999999987e+02,3.717162000000000148e+02,4.673047000000000253e+02,4.528827999999999747e+02,5.532083999999999833e+02,5.971135000000000446e+02,6.089868999999999915e+02,6.305010999999999513e+02,6.664552999999999656e+02,7.034022999999999683e+02,7.381146999999999707e+02,6.662263000000000375e+02,6.680496000000000549e+02,8.387406999999999471e+02,7.773872000000000071e+02,8.633286000000000513e+02,9.269221000000000004e+02,9.500828999999999951e+02,9.627365999999999531e+02,9.802961000000000240e+02,1.015307000000000016e+03,1.040095000000000027e+03,1.086047000000000025e+03,1.121365000000000009e+03,1.148694999999999936e+03,1.212506000000000085e+03,1.333169000000000096e+03,1.464702999999999975e+03,1.459211999999999989e+03,1.512844000000000051e+03,1.598682999999999993e+03,1.828124000000000024e+03,1.902330999999999904e+03,1.810069999999999936e+03,1.536194999999999936e+03,1.487477000000000089e+03,1.487431000000000040e+03,1.572555000000000064e+03,1.555915999999999940e+03,1.717926999999999907e+03,1.801009999999999991e+03,1.527499000000000024e+03,1.434595000000000027e+03,1.791887999999999920e+03,1.494088999999999942e+03,1.600726000000000113e+03,nan,nan,nan,nan,nan,nan,nan,nan
nan,nan,nan,nan,nan,nan,nan,nan,nan,nan,nan,nan,nan,1.957467000000000098e+03,1.664269000000000005e+03,1.453842000000000098e+03,1.320183999999999969e+03,1.770992999999999938e+03,1.759661000000000058e+03,1.565007000000000062e+03,1.282032999999999902e+03,1.491638999999999896e+03,1.525321999999999889e+03,1.024028000000000020e+03,1.255178000000000111e+03,1.128978000000000065e+03,9.171204999999999927e+02,9.402762000000000171e+02,1.084924999999999955e+03,1.484019999999999982e+03,1.530272999999999911e+03,1.137807000000000016e+03,8.692028999999999996e+02,7.604719999999999800e+02,6.673088999999999942e+02,5.091811000000000149e+02,5.532966999999999871e+02,5.119078999999999837e+02,5.804691000000000258e+02,5.389437000000000353e+02,5.226114000000000033e+02,4.435120999999999754e+02,3.805538000000000238e+02,3.679331000000000245e+02,3.426711000000000240e+02,3.224200999999999908e+02,2.986716999999999871e+02,2.751587999999999852e+02,2.756519999999999868e+02,2.272484000000000037e+02,2.333533999999999935e+02,2.323625999999999863e+02,2.252500000000000000e+02,1.979293999999999869e+02,2.337138999999999953e+02,2.173583000000000141e+02,2.124088000000000136e+02,1.884516999999999882e+02,1.832646000000000015e+02,1.688788000000000125e+02,1.721357999999999890e+02,1.712205999999999904e+02,1.458963999999999999e+02,1.537062999999999988e+02,1.623291000000000111e+02,1.257373999999999938e+02,1.417661999999999978e+02,1.220930000000000035e+02,1.329173999999999864e+02,1.192322000000000060e+02,1.317230999999999881e+02,1.067522000000000020e+02,1.158333999999999975e+02,1.059484999999999957e+02,1.174543000000000035e+02,7.807540000000000191e+01,8.639060000000000628e+01,9.057590999999999326e+01,1.118716000000000008e+02,9.689140000000000441e+01,1.043486999999999938e+02,1.137301999999999964e+02,2.615215000000000032e+02,2.608054000000000201e+02,2.060901000000000067e+02,2.400901000000000067e+02,2.668405000000000200e+02,2.551116000000000099e+02,2.803582999999999856e+02,2.978788000000000125e+02,3.434529999999999745e+02,3.493204999999999814e+02,3.696761000000000195e+02,4.038494999999999777e+02,4.428774999999999977e+02,5.221789999999999736e+02,4.415124999999999886e+02,5.730027999999999793e+02,6.156946000000000367e+02,6.228209000000000515e+02,6.681788000000000238e+02,6.877768999999999551e+02,7.611024999999999636e+02,7.968939000000000306e+02,8.019604000000000497e+02,8.418568999999999960e+02,8.705188000000000557e+02,8.951512000000000171e+02,8.731725999999999885e+02,9.613673999999999751e+02,9.922571000000000367e+02,1.031993999999999915e+03,1.061861000000000104e+03,1.087373000000000047e+03,1.115597999999999956e+03,1.171949000000000069e+03,1.204318999999999960e+03,1.263096000000000004e+03,1.292094000000000051e+03,1.433445999999999913e+03,1.609962999999999965e+03,1.733804000000000087e+03,1.805233999999999924e+03,1.750766000000000076e+03,1.880885999999999967e+03,1.610644999999999982e+03,1.523882000000000062e+03,1.610827999999999975e+03,1.620108999999999924e+03,1.848359999999999900e+03,1.844476000000000113e+03,1.778179000000000087e+03,1.658780999999999949e+03,1.457912000000000035e+03,1.612086000000000013e+03,1.490378999999999905e+03,1.508852000000000089e+03,1.796411000000000058e+03,1.833115999999999985e+03,nan,nan,nan,nan,nan,nan
nan,nan,nan,nan,nan,nan,nan,nan,nan,nan,nan,nan,nan,nan,1.826521999999999935e+03,1.700035000000000082e+03,1.491121000000000095e+03,1.784555000000000064e+03,1.751570999999999913e+03,1.411766000000000076e+03,1.442329999999999927e+03,1.719001999999999953e+03,1.414397999999999911e+03,1.282314000000000078e+03,1.455494999999999891e+03,1.199380000000000109e+03,9.731035000000000537e+02,1.218119999999999891e+03,1.245609999999999900e+03,1.344582000000000107e+03,1.464433999999999969e+03,1.229587999999999965e+03,9.875806000000000040e+02,7.919126999999999725e+02,5.609089999999999918e+02,5.913219000000000278e+02,5.527102999999999611e+02,5.816130000000000564e+02,5.812089999999999463e+02,5.111992000000000189e+02,5.087089000000000283e+02,4.409839000000000055e+02,4.247176999999999794e+02,3.635745999999999754e+02,3.748675000000000068e+02,3.826695000000000277e+02,3.310613000000000170e+02,2.511982000000000141e+02,2.579972999999999956e+02,2.450828999999999951e+02,2.338793000000000006e+02,1.991427999999999940e+02,1.932048000000000059e+02,2.161641999999999939e+02,1.932781999999999982e+02,2.084716999999999985e+02,1.889550999999999874e+02,1.807238999999999862e+02,1.917319999999999993e+02,1.758693000000000097e+02,1.577348000000000070e+02,1.585366999999999962e+02,1.611742999999999881e+02,1.352383000000000095e+02,1.464483999999999924e+02,1.493483999999999980e+02,1.180850999999999971e+02,1.415768999999999949e+02,1.208272000000000048e+02,1.192699000000000069e+02,1.098746000000000009e+02,1.101590000000000060e+02,1.051650999999999954e+02,8.527964000000000055e+01,8.303291000000000111e+01,8.303699000000000296e+01,8.548099999999999454e+01,8.756386999999999432e+01,8.442659999999999343e+01,8.913299999999999557e+01,9.830765999999999849e+01,1.329102000000000032e+02,1.221200999999999937e+02,2.369804000000000030e+02,2.656299000000000206e+02,2.675201999999999884e+02,2.882438999999999965e+02,2.817957999999999856e+02,2.965543000000000120e+02,3.103036000000000172e+02,3.279193000000000211e+02,3.535778000000000247e+02,3.816385999999999967e+02,4.005068999999999733e+02,4.355615999999999985e+02,3.580559999999999832e+02,3.564666000000000281e+02,3.599220000000000255e+02,4.713931999999999789e+02,5.727056999999999789e+02,5.665225000000000364e+02,6.808117999999999483e+02,7.764731000000000449e+02,8.042345000000000255e+02,8.368917000000000144e+02,8.612963999999999487e+02,6.927694000000000187e+02,6.377305999999999813e+02,6.795979999999999563e+02,8.586911999999999807e+02,9.461259000000000015e+02,9.520209999999999582e+02,9.535764000000000351e+02,9.855103000000000293e+02,1.100138999999999896e+03,1.177026000000000067e+03,1.225644999999999982e+03,1.272038999999999987e+03,1.394417999999999893e+03,1.449762999999999920e+03,1.692726000000000113e+03,1.818281999999999925e+03,1.905443999999999960e+03,1.898036000000000058e+03,1.882303000000000111e+03,1.679874000000000024e+03,1.645333000000000084e+03,1.632951999999999998e+03,1.459458000000000084e+03,1.511422000000000025e+03,1.575050999999999931e+03,1.541159000000000106e+03,1.486810999999999922e+03,1.435586000000000013e+03,1.641375000000000000e+03,1.495702999999999975e+03,1.478999000000000024e+03,1.555105000000000018e+03,1.615402000000000044e+03,1.634702999999999975e+03,nan,nan,nan,nan,nan
nan,nan,nan,nan,nan,nan,nan,nan,nan,nan,nan,nan,nan,2.003827999999999975e+03,1.880188000000000102e+03,1.940582000000000107e+03,1.681387999999999920e+03,1.952211000000000013e+03,1.753071999999999889e+03,1.723044000000000096e+03,1.735656999999999925e+03,1.681861000000000104e+03,1.403755000000000109e+03,1.620252999999999929e+03,1.384116999999999962e+03,1.255549999999999955e+03,1.189770999999999958e+03,1.233173999999999978e+03,1.298541999999999916e+03,1.472691000000000031e+03,1.538090999999999894e+03,1.418755000000000109e+03,1.021225000000000023e+03,7.548486000000000331e+02,7.505119999999999436e+02,6.523998000000000275e+02,5.755620999999999867e+02,5.792450000000000045e+02,5.135294999999999845e+02,4.588297999999999774e+02,4.446587999999999852e+02,4.159331999999999994e+02,4.109395000000000095e+02,4.321431999999999789e+02,3.968004000000000246e+02,3.399760999999999740e+02,3.390937999999999874e+02,2.957649999999999864e+02,2.576813999999999965e+02,2.449353999999999871e+02,2.379352000000000089e+02,2.561496999999999957e+02,2.188611999999999966e+02,1.961430000000000007e+02,1.960690999999999917e+02,1.836898999999999944e+02,1.777384999999999877e+02,1.728738999999999919e+02,1.668163999999999874e+02,1.645156000000000063e+02,1.644114999999999895e+02,1.582132000000000005e+02,1.339538000000000011e+02,1.437432000000000016e+02,1.416662000000000035e+02,1.461264999999999930e+02,1.379817999999999927e+02,1.071362000000000023e+02,1.250284000000000049e+02,1.140892999999999944e+02,1.121096000000000004e+02,1.052266000000000048e+02,9.465614999999999668e+01,7.917539999999999623e+01,8.028991000000000611e+01,8.303220000000000312e+01,8.363698999999999728e+01,8.303220000000000312e+01,8.425954000000000121e+01,8.975019000000000347e+01,9.796899000000000513e+01,1.346935000000000002e+02,1.772524999999999977e+02,1.666941999999999950e+02,1.422033000000000129e+02,1.537605000000000075e+02,2.369016000000000020e+02,2.996037000000000035e+02,3.145627999999999815e+02,3.219277000000000157e+02,3.425493000000000166e+02,3.673792000000000257e+02,3.883765000000000214e+02,4.289363999999999919e+02,3.310258999999999787e+02,3.697914000000000101e+02,4.106956999999999880e+02,4.231591000000000236e+02,5.300241999999999507e+02,4.687425999999999817e+02,6.538520999999999503e+02,7.004600000000000364e+02,7.470298000000000229e+02,7.787177000000000362e+02,7.179858000000000402e+02,6.114167999999999665e+02,5.251979000000000042e+02,6.656047999999999547e+02,8.526413999999999760e+02,9.806671999999999798e+02,8.996644000000000005e+02,1.035945999999999913e+03,1.051954999999999927e+03,1.119653999999999996e+03,1.106796000000000049e+03,1.173049999999999955e+03,1.252090999999999894e+03,1.290804000000000087e+03,1.450298999999999978e+03,1.572894000000000005e+03,1.686111000000000104e+03,1.810367999999999938e+03,1.897875000000000000e+03,1.985523999999999887e+03,1.971949000000000069e+03,1.890256000000000085e+03,1.737106999999999971e+03,1.546403999999999996e+03,1.337294000000000096e+03,1.353836000000000013e+03,1.343093000000000075e+03,1.373933999999999969e+03,1.405710000000000036e+03,1.611782999999999902e+03,1.755528000000000020e+03,1.487992999999999938e+03,1.477310999999999922e+03,1.688935999999999922e+03,1.712757000000000062e+03,1.618173000000000002e+03,1.653768000000000029e+03,1.792961000000000013e+03,nan,nan,nan
nan,nan,nan,nan,nan,nan,nan,nan,nan,nan,nan,nan,nan,1.974882000000000062e+03,1.734329999999999927e+03,1.815986000000000104e+03,2.069820000000000164e+03,2.017346000000000004e+03,1.833577999999999975e+03,1.893317000000000007e+03,1.968196999999999889e+03,1.841578999999999951e+03,1.581198000000000093e+03,1.686612000000000080e+03,1.473050999999999931e+03,1.436924999999999955e+03,1.274252999999999929e+03,1.246746000000000095e+03,1.236988000000000056e+03,1.510551999999999907e+03,1.484449000000000069e+03,1.230432000000000016e+03,1.231679000000000087e+03,9.569278000000000475e+02,7.746784999999999854e+02,7.104468000000000529e+02,6.386420000000000528e+02,5.449025000000000318e+02,4.749363000000000170e+02,4.861521999999999935e+02,3.709350999999999772e+02,3.675989999999999895e+02,3.210203999999999951e+02,3.184614000000000260e+02,3.179791999999999916e+02,3.091696999999999775e+02,3.482411999999999921e+02,2.981664999999999850e+02,2.556571000000000140e+02,2.424310000000000116e+02,2.204467999999999961e+02,2.115081999999999880e+02,2.067563000000000102e+02,1.752796999999999912e+02,2.043322000000000003e+02,2.048737999999999886e+02,1.934214000000000055e+02,1.962790999999999997e+02,1.891200000000000045e+02,1.762682000000000073e+02,1.439684000000000026e+02,1.384927999999999884e+02,1.284765999999999906e+02,1.257346000000000004e+02,1.214474000000000018e+02,1.291235000000000070e+02,1.078324999999999960e+02,1.260563999999999965e+02,1.043175999999999988e+02,1.073699000000000012e+02,1.021654999999999944e+02,9.766373000000000104e+01,9.218759000000000015e+01,8.135540000000000305e+01,8.029241000000000383e+01,8.150409000000000503e+01,8.121380999999999517e+01,8.303220000000000312e+01,8.548579999999999757e+01,8.942826999999999771e+01,9.584736999999999796e+01,1.229279999999999973e+02,1.971031000000000120e+02,2.703625000000000114e+02,2.483557000000000130e+02,2.771682999999999879e+02,3.182293000000000234e+02,2.349314999999999998e+02,3.076940999999999917e+02,3.614227999999999952e+02,3.741424999999999841e+02,3.937658000000000129e+02,3.353501999999999725e+02,3.038546000000000049e+02,3.685690999999999917e+02,3.971872999999999934e+02,4.369778000000000020e+02,4.985903999999999883e+02,5.507854999999999563e+02,3.632332000000000107e+02,5.790359999999999445e+02,6.251834000000000060e+02,5.918624999999999545e+02,5.542534000000000560e+02,4.747400000000000091e+02,6.221683000000000447e+02,6.746357000000000426e+02,8.751571999999999889e+02,9.150865000000000009e+02,9.663298999999999523e+02,1.024424999999999955e+03,1.027007000000000062e+03,1.010327999999999975e+03,1.060013999999999896e+03,1.067738000000000056e+03,1.134354000000000042e+03,1.272058999999999969e+03,1.333863000000000056e+03,1.495231999999999971e+03,1.548747000000000071e+03,1.631756000000000085e+03,1.790349999999999909e+03,1.862352000000000089e+03,1.911298000000000002e+03,1.942038999999999987e+03,1.808430000000000064e+03,1.517150000000000091e+03,1.397724999999999909e+03,1.280041999999999916e+03,1.521319999999999936e+03,1.602826000000000022e+03,1.613025000000000091e+03,1.580210000000000036e+03,1.634661000000000058e+03,1.769453999999999951e+03,1.561804000000000087e+03,1.464756000000000085e+03,1.483239000000000033e+03,1.701960000000000036e+03,1.658655999999999949e+03,1.623520999999999958e+03,1.626099999999999909e+03,1.784063000000000102e+03,1.791920000000000073e+03,nan
nan,nan,nan,nan,nan,nan,nan,nan,nan,nan,nan,nan,nan,1.814564000000000078e+03,1.618080999999999904e+03,1.771905999999999949e+03,1.897480000000000018e+03,2.187307999999999993e+03,2.143097000000000207e+03,2.191813000000000102e+03,2.160081000000000131e+03,2.036865000000000009e+03,1.977590999999999894e+03,1.720955999999999904e+03,1.587319999999999936e+03,1.546888999999999896e+03,1.401828999999999951e+03,1.392557999999999993e+03,1.449009999999999991e+03,1.586910000000000082e+03,1.512467000000000098e+03,1.463637999999999920e+03,1.225151000000000067e+03,9.440330000000000155e+02,7.976826999999999543e+02,7.234402000000000044e+02,6.109937999999999647e+02,6.000806999999999789e+02,5.526180000000000518e+02,4.881669999999999732e+02,4.813020999999999958e+02,3.563215999999999894e+02,3.148450000000000273e+02,2.934938000000000216e+02,2.924028000000000134e+02,2.647577999999999747e+02,2.289709000000000003e+02,2.087823999999999955e+02,2.561655000000000086e+02,2.347710999999999899e+02,2.074779000000000053e+02,2.029123999999999910e+02,1.782352999999999952e+02,1.693983000000000061e+02,1.975526999999999873e+02,2.218600999999999885e+02,2.357855999999999881e+02,1.980740999999999872e+02,1.910525000000000091e+02,1.773937999999999988e+02,1.726719999999999970e+02,1.655294000000000096e+02,1.332802000000000078e+02,1.349436000000000035e+02,1.362923000000000116e+02,1.224715999999999951e+02,1.175010999999999939e+02,1.174989999999999952e+02,1.144378999999999991e+02,1.047028999999999996e+02,9.044754000000000360e+01,8.715324999999999989e+01,8.473699000000000581e+01,7.785228999999999644e+01,8.059601999999999578e+01,8.029063999999999623e+01,7.998180000000000689e+01,8.058899999999999864e+01,8.396129999999999427e+01,8.647468000000000643e+01,9.279619999999999891e+01,1.000765999999999991e+02,1.704874000000000080e+02,2.686843999999999824e+02,2.430935000000000059e+02,3.214843000000000188e+02,3.331863999999999919e+02,3.646476000000000113e+02,3.229823000000000093e+02,3.189805999999999813e+02,3.101920999999999822e+02,2.849531999999999812e+02,3.980205000000000268e+02,3.619015999999999735e+02,3.890493999999999915e+02,4.852909999999999968e+02,3.881462000000000216e+02,4.826575000000000273e+02,5.566471000000000231e+02,5.076075999999999908e+02,4.145409000000000219e+02,4.191145000000000209e+02,4.382980000000000018e+02,5.612285000000000537e+02,5.336171000000000504e+02,7.451180000000000518e+02,7.710307999999999993e+02,7.883020999999999958e+02,7.220610000000000355e+02,7.074915999999999485e+02,8.502351999999999634e+02,8.740286999999999580e+02,9.989229000000000269e+02,1.156788000000000011e+03,1.191880000000000109e+03,1.255351000000000113e+03,1.306738000000000056e+03,1.323025000000000091e+03,1.441387999999999920e+03,1.530971000000000004e+03,1.585869999999999891e+03,1.701260999999999967e+03,1.834603000000000065e+03,1.936094000000000051e+03,1.990692999999999984e+03,1.764281999999999925e+03,1.635138999999999896e+03,1.358398999999999887e+03,1.592119999999999891e+03,1.753073000000000093e+03,1.747230000000000018e+03,1.632626999999999953e+03,1.587353000000000065e+03,1.646970000000000027e+03,1.755875999999999976e+03,1.762085000000000036e+03,1.509963999999999942e+03,1.507157999999999902e+03,1.475029999999999973e+03,1.672494999999999891e+03,1.697914999999999964e+03,1.591070999999999913e+03,1.601295000000000073e+03,1.755997000000000071e+03,nan
nan,nan,nan,nan,nan,nan,nan,nan,nan,nan,nan,nan,2.146068999999999960e+03,2.116123999999999796e+03,1.699942999999999984e+03,1.520185999999999922e+03,1.886558999999999969e+03,1.816377999999999929e+03,1.849959000000000060e+03,2.216215999999999894e+03,2.448666000000000167e+03,2.292682999999999993e+03,2.047663000000000011e+03,1.897676999999999907e+03,1.815971999999999980e+03,1.713315000000000055e+03,1.629348999999999933e+03,1.596076000000000022e+03,1.727598999999999933e+03,1.482997000000000071e+03,1.646987000000000080e+03,1.394113000000000056e+03,1.194670000000000073e+03,1.100800999999999931e+03,8.667835000000000036e+02,5.967554000000000087e+02,5.563257999999999583e+02,5.064660000000000082e+02,5.320462999999999738e+02,4.649071000000000140e+02,4.337230999999999881e+02,3.679119999999999777e+02,3.407386000000000195e+02,2.784567999999999870e+02,2.455281999999999982e+02,2.572149000000000001e+02,2.829014000000000237e+02,2.267168000000000063e+02,2.074950000000000045e+02,2.000570999999999913e+02,1.816326999999999998e+02,1.798386000000000138e+02,1.757667999999999893e+02,1.707346000000000004e+02,1.648934999999999889e+02,2.080610000000000070e+02,1.999002999999999872e+02,2.093129999999999882e+02,1.911947000000000116e+02,1.760013999999999896e+02,1.564199999999999875e+02,1.714649000000000001e+02,1.711767999999999859e+02,1.681360999999999990e+02,1.559209999999999923e+02,1.514963999999999942e+02,1.415610000000000070e+02,1.286302000000000021e+02,1.199304999999999950e+02,1.135461999999999989e+02,1.083640999999999934e+02,1.010113999999999947e+02,9.736554999999999893e+01,9.188899999999999579e+01,7.997938999999999510e+01,7.998900000000000432e+01,7.784987999999999886e+01,7.724099999999999966e+01,7.998900000000000432e+01,8.547060000000000457e+01,8.873627000000000464e+01,9.229040999999999428e+01,1.394525999999999897e+02,2.132721999999999980e+02,2.570507000000000062e+02,2.875350000000000250e+02,2.824057000000000244e+02,3.215461999999999989e+02,4.008777000000000044e+02,4.110271999999999935e+02,4.088534999999999968e+02,2.967547999999999888e+02,3.948423999999999978e+02,4.333976000000000113e+02,3.733294999999999959e+02,3.962927999999999997e+02,3.941014999999999873e+02,4.393842000000000212e+02,4.719268999999999892e+02,5.748894999999999982e+02,6.060252000000000407e+02,5.096397000000000048e+02,5.455678000000000338e+02,5.810135999999999967e+02,5.146147999999999456e+02,5.843467000000000553e+02,5.703460999999999785e+02,5.661453999999999951e+02,8.367874000000000478e+02,9.784169000000000551e+02,1.008404999999999973e+03,1.042201000000000022e+03,9.379622000000000526e+02,9.983979000000000497e+02,1.183728000000000065e+03,1.221317999999999984e+03,1.288409000000000106e+03,1.301410000000000082e+03,1.372708000000000084e+03,1.500486000000000104e+03,1.577125999999999976e+03,1.613186999999999898e+03,1.712439000000000078e+03,1.789884999999999991e+03,1.752124000000000024e+03,1.950061999999999898e+03,1.626128999999999905e+03,1.350700000000000045e+03,1.476875999999999976e+03,1.767241999999999962e+03,1.717355999999999995e+03,1.722451999999999998e+03,1.598895999999999958e+03,1.614663999999999987e+03,1.767299999999999955e+03,1.753832000000000107e+03,1.517227000000000089e+03,1.506512999999999920e+03,1.563365999999999985e+03,1.446396999999999935e+03,1.665159000000000106e+03,1.685038999999999987e+03,1.669833000000000084e+03,1.710890000000000100e+03,1.830422000000000025e+03
nan,nan,nan,nan,nan,nan,nan,nan,nan,nan,nan,nan,2.174297000000000025e+03,1.890642000000000053e+03,1.571253999999999905e+03,1.606476000000000113e+03,1.898949000000000069e+03,1.783569999999999936e+03,1.787532999999999902e+03,1.950180000000000064e+03,2.176951000000000022e+03,2.060798999999999978e+03,1.900334000000000060e+03,1.897116999999999962e+03,1.856086999999999989e+03,1.584961000000000013e+03,1.499464999999999918e+03,1.364297000000000025e+03,1.528936999999999898e+03,1.388128999999999905e+03,1.620896999999999935e+03,1.477380000000000109e+03,1.413047000000000025e+03,1.083017000000000053e+03,8.661196999999999662e+02,6.874049999999999727e+02,5.271543000000000347e+02,5.164849000000000387e+02,4.603091000000000008e+02,4.660916000000000281e+02,4.923002000000000180e+02,3.124297000000000253e+02,3.205681000000000154e+02,2.726598999999999933e+02,3.423009000000000128e+02,3.689803999999999746e+02,2.967576999999999998e+02,2.548346999999999980e+02,2.211220000000000141e+02,2.095673999999999921e+02,2.141786999999999921e+02,2.216968999999999994e+02,1.897206999999999937e+02,1.668519000000000005e+02,1.548988999999999976e+02,1.831117000000000132e+02,2.026879999999999882e+02,2.150483000000000118e+02,2.061859000000000037e+02,2.107626999999999953e+02,1.935783999999999878e+02,1.759134999999999991e+02,1.562562000000000069e+02,1.560406999999999869e+02,1.410701999999999998e+02,1.318737999999999886e+02,1.316933999999999969e+02,1.217578000000000031e+02,1.178392000000000053e+02,1.125193000000000012e+02,1.053847999999999985e+02,9.522881999999999891e+01,9.514361999999999853e+01,8.273077999999999577e+01,7.785540000000000305e+01,7.725330999999999904e+01,7.694098999999999933e+01,7.815079000000000065e+01,8.120659999999999457e+01,8.363698999999999728e+01,8.548704999999999643e+01,9.372365000000000634e+01,1.128032000000000039e+02,2.330439000000000078e+02,1.692443000000000097e+02,2.026933999999999969e+02,2.112750000000000057e+02,2.260851999999999862e+02,3.032361000000000217e+02,3.195111999999999739e+02,3.435000999999999749e+02,3.660715000000000146e+02,3.188879999999999768e+02,4.388188000000000102e+02,4.493727000000000089e+02,5.048487999999999829e+02,4.125416999999999916e+02,5.171417999999999893e+02,5.301407000000000380e+02,6.273220999999999776e+02,6.078949999999999818e+02,6.771903999999999542e+02,6.764325000000000045e+02,5.271151999999999589e+02,6.670235999999999876e+02,6.193727000000000089e+02,6.243831000000000131e+02,7.159683999999999742e+02,9.153259000000000469e+02,1.012102999999999952e+03,1.023325000000000045e+03,1.081442000000000007e+03,1.133426999999999907e+03,9.907491999999999734e+02,1.089778999999999996e+03,1.226683999999999969e+03,1.235817999999999984e+03,1.255420000000000073e+03,1.300730999999999995e+03,1.372931000000000040e+03,1.475266000000000076e+03,1.568366999999999962e+03,1.692144000000000005e+03,1.617429000000000087e+03,1.796156999999999925e+03,1.916998000000000047e+03,1.727833000000000084e+03,1.371259000000000015e+03,1.334056000000000040e+03,1.638205999999999904e+03,1.701616999999999962e+03,1.734288999999999987e+03,1.671960000000000036e+03,1.611590999999999894e+03,1.752451999999999998e+03,1.761567000000000007e+03,1.677977000000000089e+03,1.533226000000000113e+03,1.433270999999999958e+03,1.504857999999999947e+03,1.540775000000000091e+03,1.693538000000000011e+03,1.669551999999999907e+03,1.598020999999999958e+03,1.732125000000000000e+03
nan,nan,nan,nan,nan,nan,nan,nan,nan,nan,nan,nan,2.087927999999999884e+03,1.792641000000000076e+03,1.508493999999999915e+03,1.574704999999999927e+03,1.835903000000000020e+03,1.628257000000000062e+03,1.748449000000000069e+03,1.970233999999999924e+03,2.079056999999999789e+03,1.855694999999999936e+03,1.772938000000000102e+03,1.629396999999999935e+03,1.951569999999999936e+03,1.845842000000000098e+03,1.569112000000000080e+03,1.278663000000000011e+03,1.267676999999999907e+03,1.507595000000000027e+03,1.591664999999999964e+03,1.367092000000000098e+03,1.216307000000000016e+03,1.135363000000000056e+03,8.712255999999999858e+02,6.514509000000000469e+02,5.412296000000000049e+02,4.383824999999999932e+02,4.282941999999999894e+02,4.719058999999999742e+02,3.820910000000000082e+02,3.301098000000000070e+02,2.923648000000000025e+02,3.618149000000000228e+02,3.525382000000000176e+02,3.271709999999999923e+02,3.250040000000000191e+02,2.422579000000000065e+02,2.324416999999999973e+02,2.391791000000000054e+02,2.008645999999999958e+02,2.056810999999999865e+02,1.892477000000000089e+02,1.723671999999999969e+02,1.578925999999999874e+02,1.715401999999999987e+02,1.646276000000000010e+02,1.889617000000000075e+02,1.881281999999999925e+02,1.894156000000000120e+02,1.667117000000000075e+02,1.425312000000000126e+02,1.327193000000000040e+02,1.233397999999999968e+02,1.166089000000000055e+02,1.174401000000000010e+02,1.154100999999999999e+02,1.099915000000000020e+02,1.074419999999999931e+02,1.104881000000000029e+02,1.056273000000000053e+02,9.157927999999999713e+01,9.581699000000000410e+01,8.912926000000000215e+01,8.944499999999999318e+01,7.876578999999999553e+01,7.084485999999999706e+01,7.693777000000000044e+01,7.937197999999999354e+01,8.089860000000000184e+01,8.277625999999999351e+01,8.670099999999999341e+01,1.105433000000000021e+02,1.611845000000000141e+02,2.799633999999999787e+02,3.337135000000000105e+02,3.433265000000000100e+02,2.488414999999999964e+02,2.258478000000000065e+02,2.914578999999999951e+02,3.423636000000000195e+02,3.958195999999999799e+02,3.612971000000000004e+02,4.201134999999999877e+02,4.205892000000000053e+02,5.303695000000000164e+02,5.425256000000000540e+02,4.822916000000000167e+02,5.783125999999999749e+02,5.749180000000000064e+02,6.533905999999999494e+02,6.290208999999999833e+02,7.757011999999999716e+02,6.373660999999999603e+02,7.211217000000000326e+02,7.805810999999999922e+02,7.223605999999999767e+02,8.207708000000000084e+02,9.574677000000000362e+02,1.022827999999999975e+03,1.110897999999999911e+03,1.110301999999999907e+03,1.152219000000000051e+03,1.156410000000000082e+03,1.076154999999999973e+03,1.186374000000000024e+03,1.205468000000000075e+03,1.261382000000000062e+03,1.361826000000000022e+03,1.389750999999999976e+03,1.434782999999999902e+03,1.542467000000000098e+03,1.581275000000000091e+03,1.660076999999999998e+03,1.693435999999999922e+03,1.827483999999999924e+03,1.772587999999999965e+03,1.468718000000000075e+03,1.253467000000000098e+03,1.467097999999999956e+03,1.714555000000000064e+03,1.783571999999999889e+03,1.694193999999999960e+03,1.691903999999999996e+03,1.710515000000000100e+03,1.729973999999999933e+03,1.653053000000000111e+03,1.463377999999999929e+03,1.416002999999999929e+03,1.425631000000000085e+03,1.642625000000000000e+03,1.662448000000000093e+03,1.554686999999999898e+03,1.709368999999999915e+03,1.733836999999999989e+03
nan,nan,nan,nan,nan,nan,nan,nan,nan,nan,nan,nan,2.052456000000000131e+03,1.819286000000000058e+03,1.655434999999999945e+03,1.367476000000000113e+03,1.651924999999999955e+03,1.384329999999999927e+03,1.802228000000000065e+03,2.040604000000000042e+03,2.049480000000000018e+03,1.821018000000000029e+03,1.642550999999999931e+03,1.695958000000000084e+03,1.641858999999999924e+03,1.898019000000000005e+03,1.583847999999999956e+03,1.523381000000000085e+03,1.158651000000000067e+03,1.205489000000000033e+03,1.513413000000000011e+03,1.304319999999999936e+03,1.143068999999999960e+03,9.843179000000000087e+02,1.006613000000000056e+03,7.395715999999999894e+02,4.860448000000000093e+02,4.533747000000000185e+02,5.189932000000000016e+02,3.907660999999999945e+02,4.089218000000000188e+02,3.153193999999999733e+02,3.176021000000000072e+02,3.980892000000000053e+02,3.935287999999999897e+02,3.342708999999999833e+02,2.693870999999999754e+02,2.688813999999999851e+02,2.369310000000000116e+02,2.025751999999999953e+02,2.121152999999999906e+02,2.066165000000000020e+02,1.952707000000000050e+02,1.703788000000000125e+02,1.830593000000000075e+02,1.540534000000000106e+02,1.578692000000000064e+02,1.640632999999999981e+02,1.421923999999999921e+02,1.340055000000000121e+02,1.310439000000000078e+02,1.279069999999999965e+02,1.232489999999999952e+02,1.391221999999999923e+02,1.387529000000000110e+02,1.126052999999999997e+02,1.121306000000000012e+02,1.052150000000000034e+02,1.054111999999999938e+02,1.019873000000000047e+02,9.997674000000000660e+01,9.736562000000000694e+01,9.553423999999999694e+01,9.096832000000000562e+01,8.820899000000000001e+01,7.873045000000000471e+01,7.694098999999999933e+01,7.466499000000000308e+01,7.664189000000000362e+01,7.816579000000000121e+01,8.000202000000000169e+01,8.152994999999999948e+01,8.915059999999999718e+01,1.294336000000000126e+02,2.185365999999999929e+02,3.089363999999999919e+02,3.512241999999999962e+02,3.906295000000000073e+02,3.560269999999999868e+02,3.281383999999999901e+02,3.700015000000000214e+02,4.093491000000000213e+02,4.406820999999999913e+02,4.066714999999999804e+02,3.842056000000000040e+02,4.344238000000000284e+02,5.535513999999999442e+02,5.958084000000000060e+02,6.035748999999999569e+02,6.408219000000000278e+02,6.538463000000000420e+02,7.400342000000000553e+02,7.352337999999999738e+02,7.172338999999999487e+02,6.279672000000000480e+02,7.906977000000000544e+02,8.909781000000000404e+02,8.573051000000000386e+02,8.938654999999999973e+02,9.349760999999999740e+02,1.108914999999999964e+03,1.254509999999999991e+03,1.138130000000000109e+03,1.158618999999999915e+03,1.139546000000000049e+03,1.178425999999999931e+03,1.182660000000000082e+03,1.235108999999999924e+03,1.312538000000000011e+03,1.386819999999999936e+03,1.392104000000000042e+03,1.499566000000000031e+03,1.606148999999999887e+03,1.665551999999999907e+03,1.689858999999999924e+03,1.634413999999999987e+03,1.375320999999999913e+03,1.256477000000000089e+03,1.418201999999999998e+03,1.694799999999999955e+03,1.552268000000000029e+03,1.645875000000000000e+03,1.692281999999999925e+03,1.687343000000000075e+03,1.707518000000000029e+03,1.675634999999999991e+03,1.637176999999999907e+03,1.432450000000000045e+03,1.395153999999999996e+03,1.547809999999999945e+03,1.649511999999999944e+03,1.660996000000000095e+03,1.546762999999999920e+03,1.665596000000000004e+03,nan
nan,nan,nan,nan,nan,nan,nan,nan,nan,nan,nan,nan,2.003288000000000011e+03,1.936041999999999916e+03,1.742960000000000036e+03,1.497298999999999978e+03,1.409898999999999887e+03,1.565318999999999960e+03,1.844854000000000042e+03,1.996933999999999969e+03,1.931000999999999976e+03,1.721415999999999940e+03,1.594588999999999942e+03,1.488769000000000005e+03,1.639911000000000058e+03,1.689992999999999938e+03,1.818038999999999987e+03,1.449922000000000025e+03,1.405231999999999971e+03,1.115422000000000025e+03,1.282061999999999898e+03,1.290641000000000076e+03,1.030020999999999958e+03,8.050467999999999620e+02,9.441035000000000537e+02,8.254347999999999956e+02,5.758401000000000067e+02,4.525430999999999813e+02,4.280543999999999869e+02,4.564508999999999901e+02,4.232900000000000205e+02,4.552823000000000206e+02,3.645457000000000107e+02,4.044180999999999813e+02,3.206360999999999990e+02,3.409223000000000070e+02,3.138867999999999938e+02,2.514678999999999860e+02,2.579005000000000223e+02,2.156477999999999895e+02,1.924247000000000014e+02,2.072978999999999985e+02,2.007894000000000005e+02,1.946385999999999967e+02,1.591437999999999988e+02,1.833254000000000019e+02,1.693058000000000050e+02,1.524635000000000105e+02,1.595029999999999859e+02,1.519567000000000121e+02,1.461665000000000134e+02,1.570483999999999867e+02,1.663298000000000059e+02,1.535748000000000104e+02,1.418258999999999901e+02,1.286649999999999920e+02,1.274771999999999963e+02,1.164723000000000042e+02,1.081093000000000046e+02,1.062441000000000031e+02,9.855889000000000522e+01,9.526839999999999975e+01,9.156502999999999304e+01,8.948560000000000514e+01,8.780011000000000365e+01,8.318739999999999668e+01,7.693619999999999948e+01,7.512084000000000117e+01,7.374899000000000626e+01,7.754098999999999364e+01,7.726286000000000342e+01,7.940076999999999430e+01,8.762975000000000136e+01,1.226420999999999992e+02,2.247677999999999940e+02,2.783349000000000046e+02,3.453306000000000040e+02,2.940620999999999867e+02,3.382656999999999812e+02,4.283926999999999907e+02,3.906768000000000143e+02,4.087536999999999807e+02,3.964431000000000154e+02,5.003394999999999868e+02,5.238460999999999785e+02,4.946462000000000216e+02,5.128143000000000029e+02,5.913293999999999642e+02,6.314166999999999916e+02,7.250113999999999805e+02,6.464523000000000366e+02,8.531855000000000473e+02,7.853463000000000420e+02,8.253517000000000507e+02,8.473877999999999702e+02,7.756900000000000546e+02,8.209474000000000160e+02,9.491676999999999680e+02,9.562679000000000542e+02,9.733766000000000531e+02,1.025818999999999960e+03,1.150780999999999949e+03,1.244380000000000109e+03,1.275736000000000104e+03,1.167045000000000073e+03,1.195295000000000073e+03,1.232864000000000033e+03,1.329619999999999891e+03,1.389797000000000025e+03,1.476566000000000031e+03,1.536089999999999918e+03,1.564768000000000029e+03,1.577903000000000020e+03,1.686199000000000069e+03,1.623856999999999971e+03,1.303867999999999938e+03,1.197647999999999911e+03,1.382002999999999929e+03,1.772250999999999976e+03,1.741019000000000005e+03,1.548796000000000049e+03,1.491266000000000076e+03,1.647836999999999989e+03,1.612502999999999929e+03,1.516289999999999964e+03,1.442272999999999911e+03,1.490914999999999964e+03,1.400811999999999898e+03,1.406507000000000062e+03,1.490267000000000053e+03,1.593551999999999907e+03,1.647742999999999938e+03,1.538957000000000107e+03,1.685450000000000045e+03,nan
nan,nan,nan,nan,nan,nan,nan,nan,nan,nan,nan,nan,1.930124000000000024e+03,1.774138999999999896e+03,1.680488000000000056e+03,1.634585000000000036e+03,1.477671000000000049e+03,1.389518000000000029e+03,1.648145999999999958e+03,1.757599999999999909e+03,1.760392000000000053e+03,1.580251999999999953e+03,1.399178000000000111e+03,1.563143000000000029e+03,1.645497000000000071e+03,1.821359999999999900e+03,1.939263999999999896e+03,1.858835000000000036e+03,1.587913000000000011e+03,1.449646999999999935e+03,1.124042999999999893e+03,1.123009000000000015e+03,1.144201000000000022e+03,8.576065999999999576e+02,8.242886999999999489e+02,7.201115999999999531e+02,5.988206999999999880e+02,4.714182999999999879e+02,4.357583999999999946e+02,4.488947999999999752e+02,4.080887999999999920e+02,3.546279999999999859e+02,3.407321999999999775e+02,3.190715000000000146e+02,3.023589000000000055e+02,2.872787999999999897e+02,2.619293000000000120e+02,2.690788000000000011e+02,2.432058000000000106e+02,2.047516999999999996e+02,2.283409000000000049e+02,2.054475999999999942e+02,2.025349999999999966e+02,1.863188000000000102e+02,1.816782000000000039e+02,1.950869999999999891e+02,1.876342999999999961e+02,1.758574999999999875e+02,1.727629000000000019e+02,1.844861999999999966e+02,1.841017999999999972e+02,1.716871999999999900e+02,1.597035999999999945e+02,1.414654999999999916e+02,1.424011999999999887e+02,1.317845000000000084e+02,1.128752999999999957e+02,1.185579000000000036e+02,1.110640999999999963e+02,1.018289000000000044e+02,9.901500000000000057e+01,9.265900000000000603e+01,9.009668999999999528e+01,8.640695999999999799e+01,8.517031000000000063e+01,8.215310999999999808e+01,7.569759000000000526e+01,7.384856000000000620e+01,7.319040999999999997e+01,7.602057000000000642e+01,7.542462000000000444e+01,7.818586999999999421e+01,8.336339999999999861e+01,9.512027000000000498e+01,1.850480000000000018e+02,2.776659000000000219e+02,2.420166999999999859e+02,2.838199000000000183e+02,3.831177999999999884e+02,3.907053999999999974e+02,3.698992999999999824e+02,4.606302000000000021e+02,5.182068000000000438e+02,4.610790000000000077e+02,5.408427000000000362e+02,5.528715999999999440e+02,4.819221000000000004e+02,5.596268000000000029e+02,6.004039000000000215e+02,6.771498000000000275e+02,8.018563000000000329e+02,7.749032999999999447e+02,8.405412999999999784e+02,8.408170000000000073e+02,9.553940000000000055e+02,8.967817000000000007e+02,8.546852000000000089e+02,7.813134999999999764e+02,8.260182999999999538e+02,8.677612000000000307e+02,1.173648999999999887e+03,1.231307999999999993e+03,1.307162000000000035e+03,1.256182000000000016e+03,1.291809999999999945e+03,1.311282999999999902e+03,1.356339999999999918e+03,1.381315000000000055e+03,1.439897999999999911e+03,1.426721999999999980e+03,1.101348999999999933e+03,1.449336999999999989e+03,1.462840999999999894e+03,1.288010999999999967e+03,1.081681000000000040e+03,1.110077999999999975e+03,1.458502999999999929e+03,1.664986000000000104e+03,1.664526000000000067e+03,1.694438000000000102e+03,1.599035000000000082e+03,1.436146999999999935e+03,1.509777000000000044e+03,1.608676999999999907e+03,1.463425999999999931e+03,1.442038000000000011e+03,1.417676999999999907e+03,1.450140000000000100e+03,1.393609999999999900e+03,1.416067999999999984e+03,1.602528000000000020e+03,1.592132000000000062e+03,1.525917999999999893e+03,nan,nan
nan,nan,nan,nan,nan,nan,nan,nan,nan,nan,nan,nan,1.742708000000000084e+03,1.707584000000000060e+03,1.655084000000000060e+03,1.494315000000000055e+03,1.331384999999999991e+03,1.219115000000000009e+03,1.441017000000000053e+03,1.577263999999999896e+03,1.601502999999999929e+03,1.647269999999999982e+03,1.378527000000000044e+03,1.429551999999999907e+03,1.563923000000000002e+03,1.648398999999999887e+03,1.884858999999999924e+03,1.661652000000000044e+03,1.634886999999999944e+03,1.621814000000000078e+03,1.572976000000000113e+03,1.433066000000000031e+03,1.104777000000000044e+03,8.354207999999999856e+02,6.900601000000000340e+02,5.888060000000000400e+02,5.594887999999999693e+02,4.684080999999999904e+02,4.174066000000000258e+02,4.512423000000000002e+02,3.371270000000000095e+02,4.181596999999999866e+02,4.486000999999999976e+02,2.981630999999999858e+02,3.180579999999999927e+02,3.022139999999999986e+02,2.787923000000000116e+02,2.472905000000000086e+02,2.460853999999999928e+02,2.539436000000000035e+02,2.423720000000000141e+02,2.152034999999999911e+02,1.944070000000000107e+02,2.043315000000000055e+02,2.029018000000000086e+02,1.789185999999999979e+02,1.713539000000000101e+02,1.612453999999999894e+02,1.493514000000000124e+02,1.621091999999999871e+02,1.645636000000000081e+02,1.657545000000000073e+02,1.458221000000000060e+02,1.416264999999999930e+02,1.317974000000000103e+02,1.279483000000000033e+02,1.104853999999999985e+02,1.072317000000000036e+02,1.080112000000000023e+02,1.038511000000000024e+02,9.796540000000000248e+01,9.430298999999999410e+01,9.035425999999999647e+01,8.622379999999999711e+01,8.377979999999999450e+01,8.089660000000000650e+01,7.389821000000000595e+01,6.876574999999999704e+01,7.240250000000000341e+01,7.442470000000000141e+01,7.528283999999999310e+01,7.695539999999999736e+01,8.271916000000000224e+01,9.628100000000000591e+01,1.528077000000000112e+02,2.255037000000000091e+02,3.365353999999999814e+02,3.572588000000000079e+02,3.279893999999999892e+02,3.845573999999999728e+02,4.294284999999999854e+02,4.276743999999999915e+02,4.289642000000000053e+02,5.018206000000000131e+02,5.802006000000000085e+02,6.051647000000000389e+02,6.304120000000000346e+02,5.390312000000000126e+02,5.824586000000000467e+02,6.211889999999999645e+02,7.305003000000000384e+02,7.840983999999999696e+02,7.307667999999999893e+02,6.955891000000000304e+02,8.086153000000000475e+02,7.431108000000000402e+02,7.192226000000000568e+02,6.847894999999999754e+02,6.858139999999999645e+02,9.954547999999999774e+02,1.085788000000000011e+03,1.132463999999999942e+03,1.290540999999999940e+03,1.304532999999999902e+03,1.298412000000000035e+03,1.218140000000000100e+03,1.211894999999999982e+03,1.321034000000000106e+03,1.093637999999999920e+03,1.006947999999999979e+03,9.122966999999999871e+02,1.004794999999999959e+03,9.741539000000000215e+02,1.118198000000000093e+03,1.470883000000000038e+03,1.546778000000000020e+03,1.725541999999999916e+03,1.633957000000000107e+03,1.593510999999999967e+03,1.636395999999999958e+03,1.511849999999999909e+03,1.456967000000000098e+03,1.443519999999999982e+03,1.422354000000000042e+03,1.433344000000000051e+03,1.475451999999999998e+03,1.491548000000000002e+03,1.539645999999999958e+03,1.457105000000000018e+03,1.409921000000000049e+03,1.464605999999999995e+03,1.532945999999999913e+03,1.514750999999999976e+03,nan,nan
nan,nan,nan,nan,nan,nan,nan,nan,nan,nan,nan,nan,1.749132000000000062e+03,1.423076999999999998e+03,1.470790999999999940e+03,1.547787000000000035e+03,1.438622000000000071e+03,1.220461000000000013e+03,1.503748000000000047e+03,1.558798000000000002e+03,1.406770999999999958e+03,1.489228000000000065e+03,1.231868999999999915e+03,1.639957000000000107e+03,1.737178000000000111e+03,1.699288000000000011e+03,1.854228000000000065e+03,1.703130000000000109e+03,1.300746000000000095e+03,1.418195999999999913e+03,1.516952999999999975e+03,1.461674999999999955e+03,1.211266000000000076e+03,9.755329000000000406e+02,9.276557999999999993e+02,8.249904999999999973e+02,5.664147000000000389e+02,6.128160000000000309e+02,3.882228000000000065e+02,3.517962999999999738e+02,3.226822999999999979e+02,3.550375000000000227e+02,3.049465999999999894e+02,2.922332000000000107e+02,3.123634000000000128e+02,2.736009999999999991e+02,2.786592999999999734e+02,2.700400999999999954e+02,2.311272999999999911e+02,2.290352000000000032e+02,2.458969999999999914e+02,2.268884999999999934e+02,2.268392000000000053e+02,2.091752999999999929e+02,2.172497999999999934e+02,1.785567000000000064e+02,1.841131000000000029e+02,1.734985000000000070e+02,1.644556000000000040e+02,1.437566999999999950e+02,1.538021999999999991e+02,1.498671999999999969e+02,1.371230999999999938e+02,1.444566000000000088e+02,1.266424999999999983e+02,1.196114000000000033e+02,1.102305999999999955e+02,1.049295000000000044e+02,9.826913000000000409e+01,9.831738000000000000e+01,9.481820000000000448e+01,8.886584000000000572e+01,8.761455999999999733e+01,8.515500000000000114e+01,8.243099999999999739e+01,7.939862999999999715e+01,7.399099999999999966e+01,7.237273000000000422e+01,6.930938999999999339e+01,7.119653999999999883e+01,7.399550999999999590e+01,7.571608000000000516e+01,8.115877999999999304e+01,8.998458999999999719e+01,1.212854999999999990e+02,2.490488000000000000e+02,2.698937999999999988e+02,3.208804999999999836e+02,3.617081999999999766e+02,3.811336000000000013e+02,4.204431999999999903e+02,4.308057000000000016e+02,4.598029000000000224e+02,4.529048999999999978e+02,4.949705999999999904e+02,5.354986000000000104e+02,6.484080999999999904e+02,6.446819000000000415e+02,7.082676999999999907e+02,6.948845000000000027e+02,6.610108999999999924e+02,7.442115000000000009e+02,6.707830000000000155e+02,5.827341000000000122e+02,7.734423000000000457e+02,7.118627000000000180e+02,5.230057000000000471e+02,5.022979000000000269e+02,5.545467999999999620e+02,8.598242000000000189e+02,8.141096000000000004e+02,8.286163999999999987e+02,1.056415999999999940e+03,1.148153999999999996e+03,1.036353000000000065e+03,8.925872000000000526e+02,9.060135999999999967e+02,9.157848999999999933e+02,8.086660000000000537e+02,9.123386000000000422e+02,1.161880000000000109e+03,1.224887999999999920e+03,1.455469000000000051e+03,1.531936999999999898e+03,1.669393000000000029e+03,1.688191000000000031e+03,1.701516000000000076e+03,1.628175999999999931e+03,1.575315000000000055e+03,1.593557000000000016e+03,1.462491999999999962e+03,1.465117999999999938e+03,1.498236000000000104e+03,1.454318999999999960e+03,1.383032999999999902e+03,1.384621000000000095e+03,1.517452999999999975e+03,1.563724999999999909e+03,1.581122000000000071e+03,1.467148999999999887e+03,1.448121000000000095e+03,1.470153000000000020e+03,1.486589999999999918e+03,nan,nan
nan,nan,nan,nan,nan,nan,nan,nan,nan,nan,nan,nan,1.524444999999999936e+03,1.318701000000000022e+03,1.175970000000000027e+03,1.277695999999999913e+03,1.196955999999999904e+03,1.406987000000000080e+03,1.499159000000000106e+03,1.443707000000000107e+03,1.220212999999999965e+03,1.209538999999999987e+03,1.470506000000000085e+03,1.800017000000000053e+03,1.796259000000000015e+03,1.942904999999999973e+03,1.874847999999999956e+03,1.564750999999999976e+03,1.330211000000000013e+03,1.195298999999999978e+03,1.231002999999999929e+03,1.367874000000000024e+03,1.199548999999999978e+03,9.807604000000000042e+02,8.681494999999999891e+02,7.793715999999999440e+02,4.999572999999999752e+02,4.593605000000000018e+02,4.621798000000000002e+02,4.564218999999999937e+02,3.328482000000000198e+02,3.069279999999999973e+02,3.206738000000000284e+02,2.797366999999999848e+02,2.903462000000000103e+02,3.004522000000000048e+02,2.701750999999999863e+02,2.766917000000000257e+02,2.280339999999999918e+02,2.077708000000000084e+02,2.547238000000000113e+02,2.117016999999999882e+02,2.323089999999999975e+02,1.993460000000000036e+02,1.941021000000000072e+02,1.874194999999999993e+02,1.797315999999999860e+02,1.742669999999999959e+02,1.457523999999999944e+02,1.409095000000000084e+02,1.499960000000000093e+02,1.390809000000000140e+02,1.273995000000000033e+02,1.212527999999999935e+02,1.186110000000000042e+02,1.131474000000000046e+02,1.141830000000000069e+02,1.076058000000000021e+02,1.023259999999999934e+02,9.558531000000000688e+01,9.115403999999999485e+01,8.609129000000000076e+01,8.425419999999999732e+01,8.181686000000000547e+01,7.797499999999999432e+01,7.846299999999999386e+01,7.541500000000000625e+01,7.114060000000000628e+01,6.782768000000000086e+01,7.238706000000000529e+01,7.357791000000000281e+01,7.439728999999999814e+01,7.826940000000000452e+01,8.943340000000000600e+01,1.121632000000000033e+02,2.248811000000000035e+02,2.994707999999999970e+02,3.447903000000000020e+02,3.509642999999999802e+02,3.446793999999999869e+02,3.551238000000000170e+02,4.292982000000000085e+02,4.415106999999999857e+02,4.572837999999999852e+02,5.189160000000000537e+02,5.238315999999999804e+02,5.162195000000000391e+02,6.148628999999999678e+02,6.344057000000000244e+02,6.926327999999999747e+02,7.477349000000000387e+02,6.519333000000000311e+02,6.453314000000000306e+02,6.665933999999999742e+02,6.645720000000000027e+02,4.474818000000000211e+02,6.294951999999999543e+02,7.962727999999999611e+02,7.045526999999999589e+02,5.953021999999999707e+02,5.786375000000000455e+02,6.438990000000000009e+02,6.833469999999999800e+02,7.075979999999999563e+02,7.012468999999999824e+02,7.000760999999999967e+02,8.127250000000000227e+02,8.623321999999999434e+02,9.691951000000000249e+02,1.075039999999999964e+03,1.518470000000000027e+03,1.601474999999999909e+03,1.597653999999999996e+03,1.670531999999999925e+03,1.703364000000000033e+03,1.736914999999999964e+03,1.644559999999999945e+03,1.635400000000000091e+03,1.534053000000000111e+03,1.571290999999999940e+03,1.407221999999999980e+03,1.464196999999999889e+03,1.494108999999999924e+03,1.402736000000000104e+03,1.290788999999999987e+03,1.491633000000000038e+03,1.673815000000000055e+03,1.685053000000000111e+03,1.705861000000000104e+03,1.599881000000000085e+03,1.532567999999999984e+03,1.493906999999999925e+03,1.500652000000000044e+03,nan,nan
nan,nan,nan,nan,nan,nan,nan,nan,nan,nan,nan,nan,nan,1.365740000000000009e+03,1.372694999999999936e+03,1.153074000000000069e+03,1.028696999999999889e+03,1.280859999999999900e+03,1.323317000000000007e+03,1.217156999999999925e+03,1.247767000000000053e+03,1.367666999999999916e+03,1.317046000000000049e+03,1.485172000000000025e+03,1.638396999999999935e+03,1.695025000000000091e+03,1.826983999999999924e+03,1.576061999999999898e+03,1.561431000000000040e+03,1.384560999999999922e+03,1.061310999999999922e+03,9.888483999999999696e+02,1.084790999999999940e+03,9.919740000000000464e+02,7.761411000000000513e+02,6.988134999999999764e+02,4.668867999999999938e+02,4.058297000000000025e+02,4.177307999999999879e+02,3.909820000000000277e+02,3.749488999999999805e+02,3.079871999999999730e+02,2.671992000000000189e+02,2.539821000000000026e+02,3.020989000000000146e+02,2.555084999999999980e+02,2.273329999999999984e+02,2.678068000000000097e+02,2.153959999999999866e+02,2.085029999999999859e+02,2.513708000000000027e+02,2.320686000000000035e+02,2.014331999999999994e+02,2.211846999999999923e+02,2.203719000000000108e+02,2.008976000000000113e+02,1.814329999999999927e+02,1.600620000000000118e+02,1.552581000000000131e+02,1.583438999999999908e+02,1.468848000000000127e+02,1.382441000000000031e+02,1.395666999999999973e+02,1.302857999999999947e+02,1.228122999999999934e+02,1.118926000000000016e+02,1.055731999999999999e+02,1.017198000000000064e+02,9.835466999999999871e+01,9.492673000000000627e+01,9.041100000000000136e+01,8.722832999999999970e+01,8.424460000000000548e+01,8.120783000000000129e+01,7.876300000000000523e+01,7.571739999999999782e+01,7.419100000000000250e+01,7.267113000000000511e+01,7.074935999999999581e+01,6.728625999999999863e+01,7.236534000000000333e+01,7.475703000000000031e+01,8.098623999999999512e+01,8.851260000000000616e+01,1.067789999999999964e+02,1.948242999999999938e+02,2.831503000000000156e+02,3.284209000000000174e+02,3.222957000000000107e+02,3.319528000000000247e+02,3.529175000000000182e+02,3.722346999999999753e+02,4.424778000000000020e+02,4.541897999999999911e+02,5.114200000000000159e+02,4.535903999999999883e+02,5.462023000000000366e+02,6.023964999999999463e+02,6.301449999999999818e+02,6.771114999999999782e+02,6.500474000000000387e+02,4.486589999999999918e+02,3.746641999999999939e+02,4.373002000000000180e+02,5.554071999999999889e+02,5.348338999999999714e+02,7.088864999999999554e+02,7.975788999999999760e+02,8.424441000000000486e+02,7.624249999999999545e+02,7.993046000000000504e+02,7.713455999999999904e+02,7.697368000000000166e+02,7.703304000000000542e+02,7.670263999999999669e+02,8.897919000000000551e+02,1.060281999999999925e+03,1.034007000000000062e+03,1.183000000000000000e+03,1.356619999999999891e+03,1.461002999999999929e+03,1.482792999999999893e+03,1.545164999999999964e+03,1.550347999999999956e+03,1.473569999999999936e+03,1.680384000000000015e+03,1.647056000000000040e+03,1.592294000000000096e+03,1.414692999999999984e+03,1.576713999999999942e+03,1.522516000000000076e+03,1.350200000000000045e+03,1.259759999999999991e+03,1.447644999999999982e+03,1.605989000000000033e+03,1.638544000000000096e+03,1.614789999999999964e+03,1.764469000000000051e+03,1.756473999999999933e+03,1.766893000000000029e+03,1.748575000000000045e+03,1.606991999999999962e+03,nan,nan,nan
nan,nan,nan,nan,nan,nan,nan,nan,nan,nan,nan,nan,1.664894000000000005e+03,1.602378999999999905e+03,1.451568999999999960e+03,1.556008000000000038e+03,1.266462999999999965e+03,1.052613000000000056e+03,1.053776000000000067e+03,1.253630000000000109e+03,1.513340999999999894e+03,1.459085000000000036e+03,1.577361000000000104e+03,1.484493999999999915e+03,1.595266000000000076e+03,1.607102000000000089e+03,1.861763999999999896e+03,1.872878999999999905e+03,1.708882000000000062e+03,1.413752999999999929e+03,1.341111000000000104e+03,1.123799999999999955e+03,9.174787000000000035e+02,1.023942000000000007e+03,8.089787999999999784e+02,6.383024000000000342e+02,4.157980000000000018e+02,3.949701000000000022e+02,3.369377000000000066e+02,3.091965999999999894e+02,2.803093999999999824e+02,2.658811000000000035e+02,2.798489000000000146e+02,3.688573000000000093e+02,3.217289000000000101e+02,2.626637000000000057e+02,2.800942000000000007e+02,2.631827999999999861e+02,2.188730999999999938e+02,2.217282999999999902e+02,1.962001999999999953e+02,1.814396999999999878e+02,2.227931000000000097e+02,2.028095999999999890e+02,2.212075000000000102e+02,2.131630999999999858e+02,1.945783999999999878e+02,1.800861999999999910e+02,1.713920999999999992e+02,1.526276000000000010e+02,1.513708000000000027e+02,1.521063000000000045e+02,1.310512999999999977e+02,1.198128999999999991e+02,1.236266999999999996e+02,1.171610000000000014e+02,1.098408000000000015e+02,1.053237000000000023e+02,9.797880999999999574e+01,9.448299000000000092e+01,9.186297000000000423e+01,8.760779999999999745e+01,8.395234999999999559e+01,8.090699999999999648e+01,7.815185999999999922e+01,7.420204999999999984e+01,7.114300000000000068e+01,7.083799000000000490e+01,7.103154999999999575e+01,6.737036000000000513e+01,7.115367000000000530e+01,7.511254999999999882e+01,8.242700000000000671e+01,9.278619999999999379e+01,1.043572000000000060e+02,1.343222000000000094e+02,1.527947000000000060e+02,1.842484000000000037e+02,1.834586999999999932e+02,2.273836000000000013e+02,3.482563999999999851e+02,3.800633000000000266e+02,3.936394999999999982e+02,4.313539000000000101e+02,4.794153000000000020e+02,5.162260999999999740e+02,5.146449999999999818e+02,5.066465000000000032e+02,6.001643000000000256e+02,6.638551999999999680e+02,5.449700000000000273e+02,3.543969999999999914e+02,6.073731999999999971e+02,5.709388000000000147e+02,5.883641999999999825e+02,6.796897999999999911e+02,5.636171000000000504e+02,7.546386999999999716e+02,8.524293000000000120e+02,9.940339000000000169e+02,9.373411999999999580e+02,9.017279999999999518e+02,8.311000000000000227e+02,9.124465000000000146e+02,9.295967000000000553e+02,1.085884000000000015e+03,1.135482999999999947e+03,1.204922000000000025e+03,1.122707000000000107e+03,1.293366999999999962e+03,1.199287000000000035e+03,1.254400000000000091e+03,1.370394000000000005e+03,1.296928000000000111e+03,1.521118999999999915e+03,1.662986000000000104e+03,1.627115000000000009e+03,1.562880000000000109e+03,1.341518000000000029e+03,1.257336999999999989e+03,1.242500999999999976e+03,1.285356999999999971e+03,1.471371000000000095e+03,1.667993999999999915e+03,1.705607999999999947e+03,1.890621000000000095e+03,1.675115999999999985e+03,1.910575000000000045e+03,1.897884999999999991e+03,2.016868999999999915e+03,1.956582000000000107e+03,1.825002999999999929e+03,nan,nan,nan
nan,nan,nan,nan,nan,nan,nan,nan,nan,nan,nan,nan,1.592751999999999953e+03,1.409787000000000035e+03,1.360949000000000069e+03,1.467419000000000096e+03,1.353733999999999924e+03,1.198339999999999918e+03,1.196031999999999925e+03,1.403348999999999933e+03,1.644513999999999896e+03,1.643914999999999964e+03,1.665964999999999918e+03,1.670092000000000098e+03,1.543741999999999962e+03,1.727891000000000076e+03,1.826487000000000080e+03,1.893435999999999922e+03,1.817030999999999949e+03,1.628855000000000018e+03,1.315317999999999984e+03,1.052680000000000064e+03,8.264465000000000146e+02,8.569890000000000327e+02,8.099731000000000449e+02,6.351180000000000518e+02,4.083276999999999930e+02,4.169126999999999725e+02,5.008233999999999924e+02,4.096505000000000223e+02,3.116818000000000097e+02,3.215731000000000108e+02,2.696994000000000256e+02,3.279895000000000209e+02,3.461170999999999935e+02,2.867705000000000268e+02,2.343798999999999921e+02,2.377181999999999960e+02,2.315713000000000079e+02,2.381391000000000133e+02,2.564959999999999809e+02,1.916990000000000123e+02,1.825314999999999941e+02,1.802225999999999999e+02,1.963079999999999927e+02,1.922156999999999982e+02,1.912367999999999881e+02,1.934190000000000111e+02,1.878857000000000141e+02,1.910995000000000061e+02,1.646028000000000020e+02,1.570335000000000036e+02,1.455509999999999877e+02,1.367591999999999928e+02,1.260361000000000047e+02,1.175481000000000051e+02,1.044210999999999956e+02,1.031479000000000070e+02,9.950939999999999941e+01,9.523399000000000569e+01,9.064539000000000613e+01,8.639042999999999495e+01,8.333100000000000307e+01,7.884299000000000035e+01,7.845703000000000316e+01,7.419580000000000553e+01,6.931076000000000192e+01,6.934892999999999574e+01,6.765949000000000524e+01,6.872186999999999557e+01,7.298107000000000255e+01,7.660699999999999932e+01,8.028264000000000067e+01,9.155673000000000172e+01,1.040190000000000055e+02,1.294884000000000128e+02,2.124209999999999923e+02,3.200437999999999761e+02,2.494900000000000091e+02,2.481588999999999885e+02,3.446483999999999810e+02,3.007432999999999765e+02,4.032011999999999716e+02,4.153088000000000193e+02,3.984943000000000097e+02,4.721779999999999973e+02,5.588791999999999689e+02,5.383451000000000022e+02,6.606875000000000000e+02,5.276178999999999633e+02,3.276204000000000178e+02,4.855606000000000222e+02,6.418510999999999740e+02,7.740676999999999452e+02,7.783075999999999794e+02,7.100362999999999829e+02,7.808934000000000424e+02,7.403114000000000487e+02,7.168220000000000027e+02,8.302708000000000084e+02,9.479003999999999905e+02,1.060156999999999925e+03,9.426657000000000153e+02,1.121942999999999984e+03,1.171515000000000100e+03,1.247096000000000004e+03,1.183921000000000049e+03,1.023465000000000032e+03,9.725081999999999880e+02,1.020143000000000029e+03,1.103282999999999902e+03,1.178335000000000036e+03,1.262905999999999949e+03,1.237009999999999991e+03,1.364294000000000096e+03,1.449088999999999942e+03,1.425791999999999916e+03,1.210849999999999909e+03,1.100465999999999894e+03,1.287134999999999991e+03,1.418861000000000104e+03,1.579740000000000009e+03,1.770688000000000102e+03,1.871209000000000060e+03,1.952887999999999920e+03,1.853864000000000033e+03,1.803059999999999945e+03,1.881662000000000035e+03,1.979520999999999958e+03,2.289887000000000171e+03,1.990791999999999916e+03,nan,nan,nan,nan
nan,nan,nan,nan,nan,nan,nan,nan,nan,nan,nan,1.868351000000000113e+03,1.585227000000000089e+03,1.330082000000000107e+03,1.177575000000000045e+03,1.167881000000000085e+03,1.147269000000000005e+03,9.496826999999999543e+02,1.152167999999999893e+03,1.278609999999999900e+03,1.502698000000000093e+03,1.760344000000000051e+03,1.696196999999999889e+03,1.792394000000000005e+03,1.770390000000000100e+03,1.777490000000000009e+03,1.931354000000000042e+03,1.786330999999999904e+03,1.598143000000000029e+03,1.480395999999999958e+03,1.415020999999999958e+03,9.862875000000000227e+02,8.275575999999999794e+02,8.765291999999999462e+02,6.723876999999999953e+02,5.622079999999999700e+02,4.226492999999999824e+02,3.682271000000000072e+02,4.524266999999999825e+02,3.471186999999999898e+02,3.301148000000000025e+02,3.044667999999999779e+02,3.220496999999999730e+02,2.937409000000000106e+02,2.720040000000000191e+02,2.933718999999999824e+02,2.517653999999999996e+02,2.503893999999999949e+02,2.978604000000000269e+02,2.154139999999999873e+02,2.126663000000000068e+02,2.492656000000000063e+02,2.042547000000000139e+02,1.989446000000000083e+02,1.682586000000000013e+02,1.562178000000000111e+02,1.709899000000000058e+02,1.602586000000000013e+02,1.572366000000000099e+02,1.536064000000000078e+02,1.394326000000000079e+02,1.253004999999999995e+02,1.264839999999999947e+02,1.214271999999999991e+02,1.170481999999999942e+02,1.118367999999999967e+02,1.075353000000000065e+02,1.028551999999999964e+02,9.778619000000000483e+01,9.461820000000000164e+01,8.882618999999999687e+01,8.668780999999999892e+01,8.384332000000000562e+01,8.212220000000000653e+01,7.748942999999999870e+01,6.965147000000000332e+01,6.841119000000000483e+01,6.788679000000000485e+01,6.779473000000000127e+01,6.820940000000000225e+01,7.204859999999999332e+01,8.182864999999999611e+01,9.218313999999999453e+01,1.000957999999999970e+02,1.043586999999999989e+02,1.155150000000000006e+02,1.927283999999999935e+02,2.911220000000000141e+02,3.350602999999999838e+02,3.533956000000000017e+02,3.170960000000000036e+02,3.585923999999999978e+02,4.129058999999999742e+02,4.274658000000000015e+02,4.705597999999999956e+02,4.574057000000000244e+02,5.423958000000000084e+02,5.522208000000000538e+02,5.209668000000000347e+02,4.268641999999999825e+02,4.215427000000000248e+02,5.726354999999999791e+02,6.991552000000000362e+02,8.283301000000000158e+02,8.606073999999999842e+02,8.479361999999999853e+02,9.500149999999999864e+02,8.933694000000000415e+02,8.383125000000000000e+02,9.470090000000000146e+02,9.126730000000000018e+02,9.773297000000000025e+02,1.125231999999999971e+03,1.201753999999999905e+03,1.230432000000000016e+03,1.249925999999999931e+03,1.139548000000000002e+03,8.819012000000000171e+02,8.542880000000000109e+02,8.491508000000000038e+02,1.013918000000000006e+03,1.122667999999999893e+03,1.154819999999999936e+03,1.202336999999999989e+03,1.324619999999999891e+03,1.237329999999999927e+03,1.056269999999999982e+03,1.145776000000000067e+03,1.260186999999999898e+03,1.506221000000000004e+03,1.311214999999999918e+03,1.588402000000000044e+03,1.968251999999999953e+03,1.980073000000000093e+03,1.850607999999999947e+03,1.756636999999999944e+03,1.964310999999999922e+03,1.989657999999999902e+03,2.104628999999999905e+03,2.324969000000000051e+03,2.187115999999999985e+03,nan,nan,nan,nan
nan,nan,nan,nan,nan,nan,nan,nan,nan,nan,1.647584000000000060e+03,1.625726000000000113e+03,1.695509999999999991e+03,1.603855000000000018e+03,1.315917999999999893e+03,1.157756000000000085e+03,1.004323999999999955e+03,1.260417999999999893e+03,1.554942999999999984e+03,1.388615999999999985e+03,1.422651000000000067e+03,1.690627999999999929e+03,1.894369999999999891e+03,1.893608999999999924e+03,1.852781999999999925e+03,1.943276000000000067e+03,1.895569999999999936e+03,1.551819999999999936e+03,1.254558999999999969e+03,1.155020999999999958e+03,1.179080999999999904e+03,1.038881000000000085e+03,8.555811999999999671e+02,8.888637999999999693e+02,7.454465000000000146e+02,5.423414999999999964e+02,4.067975999999999885e+02,4.151403999999999996e+02,4.269363000000000170e+02,3.526936999999999784e+02,3.107536999999999807e+02,3.534506999999999834e+02,3.326917000000000257e+02,3.150520000000000209e+02,2.964359000000000037e+02,2.564859000000000151e+02,2.509244999999999948e+02,2.680975000000000250e+02,3.415955999999999904e+02,2.773530999999999835e+02,2.812334999999999923e+02,2.634187000000000012e+02,2.383794000000000040e+02,2.034550999999999874e+02,1.948816999999999950e+02,1.856668999999999983e+02,1.483880000000000052e+02,1.492693999999999903e+02,1.436545000000000130e+02,1.399891000000000076e+02,1.342766000000000020e+02,1.286471999999999980e+02,1.221213000000000051e+02,1.152223999999999933e+02,1.146680000000000064e+02,1.084612000000000052e+02,1.021214999999999975e+02,9.823739000000000487e+01,9.522298999999999580e+01,9.195499999999999829e+01,8.882219999999999516e+01,8.316008999999999673e+01,8.205339999999999634e+01,7.999259999999999593e+01,7.845499999999999829e+01,6.900939999999999941e+01,6.839979999999999905e+01,6.833472999999999331e+01,6.169852999999999810e+01,7.419043000000000632e+01,7.702139999999999986e+01,8.573169000000000040e+01,9.522299999999999898e+01,1.052717999999999989e+02,1.105288000000000039e+02,1.156085000000000065e+02,1.674123999999999910e+02,2.420131000000000085e+02,3.417742000000000075e+02,3.479726999999999748e+02,3.818152999999999793e+02,3.923396000000000186e+02,3.724884000000000128e+02,4.133577999999999975e+02,4.737769000000000119e+02,4.822577999999999747e+02,4.885326999999999771e+02,5.017278000000000020e+02,3.821494000000000142e+02,4.542078000000000202e+02,4.753240999999999872e+02,6.411855000000000473e+02,7.008173000000000457e+02,7.699885000000000446e+02,8.667015000000000100e+02,8.389086999999999534e+02,9.395896000000000186e+02,9.319588999999999714e+02,1.011804999999999950e+03,1.079561999999999898e+03,1.137432000000000016e+03,1.146609999999999900e+03,1.082977000000000089e+03,1.161638999999999896e+03,1.150309999999999945e+03,1.246782999999999902e+03,1.080869999999999891e+03,9.262432999999999765e+02,1.063240999999999985e+03,1.193635999999999967e+03,1.138875999999999976e+03,9.426312000000000353e+02,1.006583999999999946e+03,9.385118999999999687e+02,1.026112000000000080e+03,1.047346000000000004e+03,1.073138999999999896e+03,1.400240000000000009e+03,1.617103000000000065e+03,1.708219000000000051e+03,1.636898999999999887e+03,1.575148999999999887e+03,1.737202999999999975e+03,1.986166999999999916e+03,2.040406999999999925e+03,1.994381000000000085e+03,1.992238000000000056e+03,2.126927999999999884e+03,2.219027000000000044e+03,nan,nan,nan,nan,nan,nan
nan,nan,nan,nan,nan,nan,nan,nan,nan,1.645286000000000058e+03,1.389608999999999924e+03,1.436553000000000111e+03,1.468903999999999996e+03,1.704576999999999998e+03,1.482446999999999889e+03,1.198509000000000015e+03,9.846860000000000355e+02,1.325425999999999931e+03,1.635861000000000104e+03,1.796836000000000013e+03,1.660365000000000009e+03,1.860862000000000080e+03,1.831967000000000098e+03,1.772894000000000005e+03,1.759270999999999958e+03,1.739568999999999960e+03,1.932994999999999891e+03,1.705036000000000058e+03,1.405845000000000027e+03,1.135627999999999929e+03,8.507825000000000273e+02,9.517480000000000473e+02,8.546010999999999740e+02,7.383964999999999463e+02,7.947756000000000540e+02,5.192019999999999982e+02,4.653197999999999865e+02,6.066040000000000418e+02,4.711494000000000142e+02,3.538537999999999784e+02,3.339624999999999773e+02,3.187522000000000162e+02,2.842282000000000153e+02,2.827142999999999802e+02,2.820679999999999836e+02,2.557315999999999860e+02,2.513495000000000061e+02,2.527264000000000124e+02,2.878584000000000174e+02,2.755801000000000158e+02,2.662089000000000283e+02,2.494992000000000019e+02,2.307914000000000101e+02,2.220825000000000102e+02,1.876798000000000002e+02,1.947522999999999911e+02,1.826331000000000131e+02,1.623958000000000084e+02,1.599659000000000049e+02,1.620755000000000052e+02,1.513759000000000015e+02,1.446062000000000012e+02,1.348480000000000132e+02,1.257999999999999972e+02,1.227717999999999989e+02,1.130229999999999961e+02,1.109372000000000043e+02,1.025678000000000054e+02,9.971885000000000332e+01,9.249196999999999491e+01,8.979792999999999381e+01,8.578325999999999851e+01,8.181779000000000224e+01,7.816302000000000305e+01,7.481100000000000705e+01,7.205899999999999750e+01,6.870337999999999568e+01,6.729098000000000468e+01,6.017099999999999937e+01,7.654219999999999402e+01,8.302621000000000606e+01,9.308087000000000444e+01,1.019245999999999981e+02,1.083336000000000041e+02,1.156453999999999951e+02,1.214449000000000041e+02,1.604784999999999968e+02,2.525584000000000060e+02,3.049572999999999752e+02,3.685738000000000056e+02,3.886163000000000238e+02,4.089306000000000267e+02,3.723892000000000166e+02,4.157672000000000025e+02,4.566243999999999801e+02,4.212223999999999933e+02,3.427479999999999905e+02,2.908002999999999929e+02,4.065799000000000092e+02,5.075274999999999750e+02,5.418007999999999811e+02,6.304021000000000186e+02,7.671031000000000404e+02,7.227413000000000238e+02,8.432545000000000073e+02,8.135031999999999925e+02,7.870261000000000422e+02,9.165366000000000213e+02,9.337826999999999771e+02,9.595525999999999840e+02,1.021446000000000026e+03,1.191554000000000087e+03,1.219712999999999965e+03,1.084741999999999962e+03,1.022797000000000025e+03,1.060491999999999962e+03,9.009534999999999627e+02,1.071509999999999991e+03,1.174707000000000107e+03,1.329115999999999985e+03,1.219458000000000084e+03,1.174500000000000000e+03,1.086452999999999975e+03,1.134553000000000111e+03,1.073142000000000053e+03,1.199757000000000062e+03,1.243942000000000007e+03,1.292290999999999940e+03,1.475634000000000015e+03,1.610398999999999887e+03,1.747724999999999909e+03,1.622983999999999924e+03,1.654835000000000036e+03,1.786117999999999938e+03,nan,nan,nan,nan,nan,nan,nan,nan,nan,nan,nan
nan,nan,nan,nan,nan,nan,nan,nan,1.817832000000000107e+03,1.658223999999999933e+03,1.410540999999999940e+03,1.213558999999999969e+03,1.364395999999999958e+03,1.488029999999999973e+03,1.487682000000000016e+03,1.142164999999999964e+03,8.519113999999999578e+02,1.223240000000000009e+03,1.537786000000000058e+03,1.767662000000000035e+03,1.796261999999999944e+03,1.813169000000000096e+03,1.691067999999999984e+03,1.581141000000000076e+03,1.587791999999999916e+03,1.761122000000000071e+03,1.875458000000000084e+03,1.808310999999999922e+03,1.438297000000000025e+03,1.199595000000000027e+03,1.051490999999999985e+03,7.906815000000000282e+02,7.395676999999999452e+02,6.015715000000000146e+02,7.223261999999999716e+02,6.101163000000000238e+02,4.465344000000000051e+02,4.011886999999999830e+02,3.980681000000000154e+02,3.346961999999999762e+02,3.341677000000000248e+02,3.001089999999999804e+02,2.932948000000000093e+02,2.576216000000000008e+02,2.567687000000000239e+02,2.555268000000000086e+02,2.216906999999999925e+02,2.358867999999999938e+02,2.619816999999999894e+02,2.464420000000000073e+02,2.492263000000000090e+02,2.153237000000000023e+02,2.210508000000000095e+02,2.220216000000000065e+02,1.877214999999999918e+02,1.737411999999999921e+02,1.732697000000000003e+02,1.615164000000000044e+02,1.424596999999999980e+02,1.492058000000000106e+02,1.367589000000000112e+02,1.259800000000000040e+02,1.340578999999999894e+02,1.297981000000000051e+02,1.224517000000000024e+02,1.137005999999999943e+02,1.075110999999999990e+02,1.019410000000000025e+02,9.674219999999999686e+01,9.335734999999999673e+01,8.670300000000000296e+01,8.455899999999999750e+01,8.119659000000000049e+01,7.846674000000000149e+01,7.549112999999999829e+01,6.962380000000000280e+01,6.722060000000000457e+01,6.487615999999999872e+01,7.084892000000000678e+01,7.542458000000000595e+01,8.699420000000000641e+01,9.491419999999999391e+01,1.013113000000000028e+02,1.124241999999999990e+02,1.212661999999999978e+02,1.286565999999999974e+02,1.505995000000000061e+02,2.302238999999999862e+02,3.344420000000000073e+02,3.555009000000000015e+02,3.875683999999999969e+02,3.336811000000000149e+02,2.415987000000000080e+02,2.852979000000000269e+02,3.146236999999999853e+02,3.775013999999999896e+02,3.758942999999999870e+02,4.892357999999999834e+02,5.280782000000000380e+02,6.246516000000000304e+02,6.207789999999999964e+02,6.206192999999999529e+02,6.735909000000000333e+02,6.660140000000000100e+02,6.658184999999999718e+02,7.512853000000000065e+02,7.674365000000000236e+02,7.908884000000000469e+02,8.091470000000000482e+02,8.723002000000000180e+02,9.597091000000000349e+02,1.127974999999999909e+03,1.132923000000000002e+03,9.619791000000000167e+02,9.374447999999999865e+02,1.035663999999999987e+03,7.770085000000000264e+02,1.038719000000000051e+03,1.141994999999999891e+03,1.157891000000000076e+03,1.230230000000000018e+03,1.260009999999999991e+03,1.270834000000000060e+03,1.290285000000000082e+03,1.196400000000000091e+03,1.361463999999999942e+03,1.420137999999999920e+03,1.630146999999999935e+03,1.804155999999999949e+03,1.808638999999999896e+03,1.740990999999999985e+03,1.839499000000000024e+03,1.634090999999999894e+03,1.786840999999999894e+03,nan,nan,nan,nan,nan,nan,nan,nan,nan,nan,nan
nan,nan,nan,nan,nan,nan,nan,nan,1.617231999999999971e+03,1.399929000000000087e+03,1.374289999999999964e+03,1.329326000000000022e+03,1.141769999999999982e+03,1.376607999999999947e+03,1.484584000000000060e+03,1.172001999999999953e+03,8.546988999999999805e+02,1.279207000000000107e+03,1.613150000000000091e+03,1.671500999999999976e+03,1.678384000000000015e+03,1.608241999999999962e+03,1.537930000000000064e+03,1.517402000000000044e+03,1.415955999999999904e+03,1.691681000000000040e+03,1.658628999999999905e+03,1.807273999999999887e+03,1.594730000000000018e+03,1.314605999999999995e+03,9.978564000000000078e+02,1.011541000000000054e+03,9.095927000000000362e+02,7.029335999999999558e+02,5.100815000000000055e+02,4.636852000000000089e+02,4.525373999999999910e+02,4.359914999999999736e+02,3.668738000000000170e+02,3.435384000000000242e+02,3.345135000000000218e+02,3.190532000000000039e+02,2.566816000000000031e+02,2.696046999999999798e+02,2.376302000000000021e+02,2.402214999999999918e+02,2.119157999999999902e+02,2.387903000000000020e+02,2.442586000000000013e+02,2.525168999999999926e+02,2.367849999999999966e+02,2.377044999999999959e+02,2.247642999999999915e+02,2.061403999999999996e+02,1.926316999999999950e+02,1.767335999999999956e+02,1.642085999999999899e+02,1.648021999999999991e+02,1.445346999999999866e+02,1.385281999999999982e+02,1.269279999999999973e+02,1.222019999999999982e+02,1.146976999999999975e+02,1.104895000000000067e+02,1.177528999999999968e+02,1.069390999999999963e+02,1.050153999999999996e+02,9.980706000000000699e+01,9.275419999999999732e+01,9.064619000000000426e+01,8.608859999999999957e+01,8.303019999999999357e+01,8.026220000000000709e+01,7.629278999999999655e+01,7.084613000000000227e+01,6.749005999999999972e+01,6.568448999999999671e+01,6.290699999999999648e+01,7.087999999999999545e+01,7.827979999999999450e+01,8.790608000000000288e+01,9.492341999999999302e+01,1.049725999999999999e+02,1.132056999999999931e+02,1.141171999999999969e+02,1.348823999999999899e+02,1.544179000000000030e+02,2.185005999999999915e+02,2.481846999999999923e+02,1.849670000000000130e+02,2.450577999999999861e+02,3.369429999999999836e+02,4.063951999999999884e+02,4.436886000000000081e+02,4.219644999999999868e+02,4.372850999999999999e+02,5.121498000000000275e+02,5.567274999999999636e+02,5.006202999999999861e+02,5.708573000000000093e+02,5.248473000000000184e+02,4.612149999999999750e+02,5.520629999999999882e+02,5.904229000000000269e+02,6.116301999999999452e+02,6.811962999999999511e+02,7.211041999999999916e+02,8.281748999999999796e+02,8.567714999999999463e+02,1.016035999999999945e+03,1.027268000000000029e+03,1.090387999999999920e+03,1.069351000000000113e+03,8.186554999999999609e+02,8.567305000000000064e+02,8.329178000000000566e+02,9.498481000000000449e+02,1.034234999999999900e+03,1.022735000000000014e+03,1.109088999999999942e+03,1.211307000000000016e+03,1.317977000000000089e+03,1.310569999999999936e+03,1.361923999999999978e+03,1.458410000000000082e+03,1.433964999999999918e+03,1.701967000000000098e+03,1.689680000000000064e+03,1.796050999999999931e+03,1.950057999999999993e+03,1.846977000000000089e+03,1.764278000000000020e+03,1.818115000000000009e+03,1.869612000000000080e+03,nan,nan,nan,nan,nan,nan,nan,nan,nan,nan,nan
