ncols         351
nrows         35
xllcorner     -2258880.35438
yllcorner     159900.617944
cellsize      1000
NODATA_value  -9999
-9999 -9999 -9999 -9999 -9999 -9999 -9999 -9999 -9999 -9999 -9999 -9999 -9999 -9999 -9999 -9999 -9999 -9999 -9999 -9999 -9999 -9999 -9999 -9999 -9999 -9999 -9999 -9999 -9999 -9999 -9999 -9999 -9999 -9999 -9999 -9999 -9999 -9999 -9999 -9999 -9999 -9999 -9999 -9999 -9999 -9999 -9999 -9999 -9999 -9999 -9999 -9999 -9999 -9999 -9999 -9999 -9999 -9999 -9999 -9999 -9999 -9999 -9999 -9999 -9999 -9999 -9999 -9999 -9999 -9999 -9999 -9999 -9999 -9999 -9999 -9999 -9999 192.9258 342.1694 293.0823 377.7381 621.6617 810.9711 812.5229 787.6332 664.377 631.5043 475.3158 592.9827 551.9634 514.2765 427.2294 407.8921 403.777 403.74 403.74 403.74 403.74 403.74 403.74 403.74 403.74 403.74 403.74 594.1148 612.2845 750.2715 816.9341 798.7316 740.2012 692.2544 543.3312 574.2124 637.481 387.3588 635.8483 729.6978 578.9944 418.9318 553.4324 657.9913 711.9133 577.136 524.5121 425.01 501.9616 648.8613 823.6547 978.0543 747.2814 750.4352 525.1354 415.0621 403.4162 400.6522 448.5065 380.8074 194.7741 278.8605 220.8119 146.6691 151.6271 117.2512 171.3492 73.32361 61.38976 49.98966 47.89962 45.93098 43.05671 38.07639 35.45129 33.42592 29.8086 27.07518 24.3157 23.42276 21.26836 20.63193 19.62856 18.55605 17.51168 16.56561 15.49972 14.4637 14.23559 14.84079 15.78311 16.45223 17.49521 17.52802 17.42333 16.42057 15.632 15.02966 14.53901 14.432 17.87362 23.11702 29.66994 36.90458 46.09162 56.26978 149.4383 240.8523 168.442 163.0944 93.24559 127.1069 123.0502 57.47633 22.01572 21.96628 21.80134 21.89359 22.09472 22.49853 23.47081 23.50383 23.70209 24.71972 23.15124 21.59 21.7061 25.50761 26.48547 26.64489 27.22346 30.27625 35.16126 34.19245 34.16814 38.01275 43.05401 81.39621 92.51604 81.70599 93.9561 115.5752 151.1134 150.4198 198.4488 182.5215 259.5934 251.2665 301.8053 453.1519 353.413 387.4389 548.7526 479.6479 469.8963 486.0467 487.2803 556.4585 508.0346 533.6804 513.9562 632.2957 749.2947 745.3458 787.1351 392.9405 388.8147 558.6354 534.6285 538.7523 706.0825 787.7402 760.3309 519.0335 686.7263 580.6903 728.4695 880.0471 895.8493 938.4896 963.285 1093.14 1133.823 1168.435 854.5171 1147.688 1256.251 1260.314 1036.127 1184.549 1158.311 1305.866 1189.694 1032.127 1206.141 1338.482 1254.813 1458.897 1455.589 1525.48 1632.307 1730.547 1788.251 1868.952 1921.94 1900.588 -9999 -9999 -9999 -9999 -9999 -9999 -9999 -9999 -9999 -9999 -9999 -9999 -9999 -9999 -9999 -9999 -9999 -9999 -9999 -9999 -9999 -9999 -9999 -9999 -9999 -9999 -9999 -9999 -9999 -9999 -9999 -9999 -9999 -9999 -9999 -9999 -9999 -9999 -9999 -9999 -9999 -9999 -9999 -9999 -9999 -9999 -9999 -9999 -9999 -9999 -9999 -9999 -9999 -9999 -9999 -9999 -9999 -9999 -9999 -9999 -9999 -9999 -9999 -9999 -9999 -9999 -9999 -9999
-9999 -9999 -9999 -9999 -9999 -9999 -9999 -9999 -9999 -9999 -9999 -9999 -9999 -9999 -9999 -9999 -9999 -9999 -9999 -9999 -9999 -9999 -9999 -9999 -9999 -9999 -9999 -9999 -9999 -9999 -9999 -9999 -9999 -9999 -9999 -9999 -9999 -9999 -9999 -9999 -9999 -9999 -9999 -9999 -9999 -9999 -9999 -9999 -9999 -9999 -9999 -9999 -9999 -9999 -9999 -9999 -9999 -9999 -9999 -9999 -9999 -9999 -9999 -9999 -9999 -9999 -9999 -9999 -9999 -9999 -9999 -9999 -9999 -9999 -9999 -9999 -9999 166.0874 234.2443 271.2509 271.313 463.9557 626.1928 765.4669 856.6049 771.7956 549.8541 511.5268 546.3755 483.8033 485.3037 423.3962 407.6974 404.9962 404.1445 405.2453 403.9684 403.74 403.74 403.74 403.74 403.74 403.74 403.74 572.8231 424.5449 603.574 705.3911 581.5331 608.3568 567.1661 616.4883 770.5495 560.4122 381.6147 504.4882 668.9807 554.1273 398.7892 503.6162 525.4085 599.9843 485.4959 446.131 425.01 484.3852 722.3149 902.3696 1050.181 814.4054 647.3916 500.4799 413.255 400.6745 409.8377 391.7196 354.4855 180.4276 167.5186 187.8916 283.2672 436.3143 171.6322 100.5182 72.97562 60.56801 51.87405 48.53888 45.28153 41.00333 37.38958 35.3982 32.72688 30.11403 26.80412 24.53104 23.62065 22.08647 20.53521 19.66599 18.71308 17.52588 16.29101 15.52215 14.47018 14.32126 14.6316 15.80052 16.36694 16.09789 17.06988 15.9427 16.24034 15.49987 15.46643 14.46536 14.432 17.75466 33.7142 98.14496 47.12112 114.1902 96.80906 113.9959 336.877 222.8533 260.7011 198.9881 168.4785 46.0693 29.28481 23.40998 22.10096 21.11349 21.6638 21.9591 22.08972 22.596 23.39459 23.48293 22.15898 20.75249 23.78302 24.98828 25.18765 26.19054 26.29 26.82276 28.22931 37.15326 34.08065 35.48746 37.96167 41.09214 53.65347 92.76272 101.213 82.15539 116.9209 135.2947 149.7198 178.719 195.2686 209.3326 256.4049 272.6725 510.2456 353.413 448.4489 581.7245 511.2119 492.8866 576.51 552.4857 547.5265 495.7534 486.0504 507.945 757.0682 823.3462 731.9057 655.2073 329.3323 592.5279 625.1962 653.7855 680.1142 671.9636 740.6425 875.5671 860.9105 732.2493 689.7321 735.9874 902.5926 973.118 1067.56 1097.289 1156.105 1124.881 1154.872 1032.038 1241.826 1290.001 1375.743 1213.991 1252.683 1325.498 1473.09 1385.66 1379.605 1340.473 1390.651 1340.449 1429.474 1444.281 1574.508 1666.431 1773.066 1814.417 1841.518 1830.313 1789.597 -9999 -9999 -9999 -9999 -9999 -9999 -9999 -9999 -9999 -9999 -9999 -9999 -9999 -9999 -9999 -9999 -9999 -9999 -9999 -9999 -9999 -9999 -9999 -9999 -9999 -9999 -9999 -9999 -9999 -9999 -9999 -9999 -9999 -9999 -9999 -9999 -9999 -9999 -9999 -9999 -9999 -9999 -9999 -9999 -9999 -9999 -9999 -9999 -9999 -9999 -9999 -9999 -9999 -9999 -9999 -9999 -9999 -9999 -9999 -9999 -9999 -9999 -9999 -9999 -9999 -9999 -9999 -9999
-9999 -9999 -9999 -9999 -9999 -9999 -9999 -9999 -9999 -9999 -9999 -9999 -9999 -9999 -9999 -9999 -9999 -9999 -9999 -9999 -9999 -9999 -9999 -9999 -9999 -9999 -9999 -9999 -9999 -9999 -9999 -9999 -9999 -9999 -9999 -9999 -9999 -9999 -9999 -9999 -9999 -9999 -9999 -9999 -9999 -9999 -9999 -9999 -9999 -9999 -9999 -9999 -9999 -9999 -9999 -9999 -9999 -9999 -9999 -9999 -9999 -9999 -9999 -9999 -9999 -9999 -9999 -9999 -9999 -9999 -9999 -9999 -9999 -9999 -9999 -9999 -9999 163.949 177.7797 228.5836 229.5955 299.727 660.5688 641.0767 717.1453 725.5328 595.6981 523.036 543.4297 491.3617 521.865 438.1191 417.8937 407.9391 408.2977 407.5001 405.9635 406.6614 405.4901 403.74 403.74 403.74 403.74 403.74 410.194 403.74 527.923 691.475 551.9962 547.2893 542.3818 540.9769 575.7609 661.3336 493.4376 373.0542 396.785 446.7357 379.9679 396.3872 349.0937 530.5212 604.9853 480.6739 425.2533 581.982 716.9697 909.2785 1010.537 832.1788 689.7982 470.2474 412.5386 401.4541 406.4816 387.7415 350.7433 206.7654 322.3472 163.4383 314.8016 477.4477 215.1127 74.6583 66.39531 58.9304 55.59908 50.12902 44.28245 40.59045 37.1651 33.72566 31.63238 28.9164 26.71294 25.49271 24.49167 22.44531 21.18464 20.02991 18.70041 17.68201 16.13701 15.86378 14.42825 13.98096 13.73338 14.77955 16.00476 14.56373 16.82215 15.99881 15.532 16.2582 17.27224 16.43399 14.432 15.61264 55.41193 88.38934 49.4355 118.6814 344.9359 405.8122 290.415 338.0314 206.9247 270.5508 173.7816 125.8204 44.13593 81.20059 21.92085 20.95702 21.137 21.99872 21.57179 22.29172 23.41498 23.18086 21.95625 21.06299 23.89 24.61628 24.80324 26.58489 26.4466 28.0003 29.68146 31.49713 33.37509 34.44353 36.81911 48.89393 67.21729 94.33313 118.0051 80.07841 110.0655 133.2334 151.5793 167.1208 198.6877 241.3656 277.6584 281.6835 347.941 321.7641 439.8408 618.9128 589.5683 525.7501 548.174 615.3753 646.1978 517.4675 372.5379 561.9325 732.0089 746.0034 482.9541 435.4812 631.3495 620.9377 728.9947 691.9308 691.181 716.2463 752.0698 791.5184 795.603 790.4443 815.6693 864.9938 891.9824 1025.168 1053.992 1194.969 1235.511 1285.895 1274.269 1141.184 1193.755 1231.205 1255.568 1287.598 1332.405 1414.333 1481.922 1529.397 1560.996 1556.328 1268.704 1302.015 1380.39 1542.543 1697.376 1710.622 1858.676 1872.067 1688.459 1574.414 1628.913 -9999 -9999 -9999 -9999 -9999 -9999 -9999 -9999 -9999 -9999 -9999 -9999 -9999 -9999 -9999 -9999 -9999 -9999 -9999 -9999 -9999 -9999 -9999 -9999 -9999 -9999 -9999 -9999 -9999 -9999 -9999 -9999 -9999 -9999 -9999 -9999 -9999 -9999 -9999 -9999 -9999 -9999 -9999 -9999 -9999 -9999 -9999 -9999 -9999 -9999 -9999 -9999 -9999 -9999 -9999 -9999 -9999 -9999 -9999 -9999 -9999 -9999 -9999 -9999 -9999 -9999 -9999 -9999
-9999 -9999 -9999 -9999 -9999 -9999 -9999 -9999 -9999 -9999 -9999 -9999 -9999 -9999 -9999 -9999 -9999 -9999 -9999 -9999 -9999 -9999 -9999 -9999 -9999 -9999 -9999 -9999 -9999 -9999 -9999 -9999 -9999 -9999 -9999 -9999 -9999 -9999 -9999 -9999 -9999 -9999 -9999 -9999 -9999 -9999 -9999 -9999 -9999 -9999 -9999 -9999 -9999 -9999 -9999 -9999 -9999 -9999 -9999 -9999 -9999 -9999 -9999 -9999 -9999 -9999 -9999 -9999 -9999 -9999 -9999 -9999 -9999 -9999 -9999 -9999 -9999 248.6906 173.8607 221.9611 247.7246 373.5294 469.5647 509.5786 639.9922 827.094 586.2105 600.88 570.8983 443.128 508.7945 422.4936 420.2453 410.9533 411.217 409.3862 408.8102 410.1338 408.8973 406.0591 404.4198 403.74 403.74 403.74 403.74 403.74 464.9305 702.7027 674.4706 552.2747 530.7352 526.3248 530.8318 538.6728 670.1517 653.7857 549.2431 527.5015 353.6408 354.4629 426.6056 447.7163 390.5444 549.1143 533.8243 480.0446 664.291 910.5674 954.506 791.2363 696.9853 501.7971 410.5429 397.5274 425.3526 401.8841 338.0191 304.4089 333.9655 198.3215 387.3583 342.4084 139.8459 81.5313 70.52707 61.29111 56.04025 49.80611 46.44233 42.49347 38.49619 34.36802 31.79152 29.9077 29.26093 28.86945 26.53595 24.17941 22.35227 21.27215 18.90435 17.49593 16.37202 15.43726 14.29922 13.12598 13.46658 13.23177 15.3869 14.45062 15.80853 16.28738 15.932 15.93414 15.92995 16.03149 15.66121 15.92665 20.87118 62.25637 111.6642 236.0522 356.6959 305.9832 454.1581 338.442 293.8438 219.3577 253.2511 208.4426 105.3806 62.63272 33.1154 20.49673 20.59212 20.96839 21.66089 22.39019 22.78228 23.52537 20.00727 23.56975 23.68773 24.19 24.6898 25.29525 26.58999 27.69512 29.38282 32.47248 30.75879 40.00155 37.87498 44.05521 97.75201 152.9988 122.4494 99.08363 108.8809 127.4718 144.4905 160.9004 197.2565 252.0825 259.6334 315.1005 427.9951 338.5663 407.516 588.7362 614.9357 577.7943 548.1617 662.3752 531.3496 448.2127 226.9697 364.1763 312.0539 247.7126 364.9691 604.3945 560.129 650.8824 634.819 680.2174 774.9669 747.1183 729.1891 720.9886 763.9603 805.9743 876.7285 863.7018 918.946 960.9783 975.3643 1044.897 1090.984 1271.431 1247.508 1242.905 1208.436 1304.096 1401.352 1402.005 1414.085 1458.661 1493.271 1518.17 1360.315 1464.148 1196.346 1158.83 1484.571 1630.685 1688.681 1756.983 1909.885 1749.823 1472.812 1665.989 1911.29 -9999 -9999 -9999 -9999 -9999 -9999 -9999 -9999 -9999 -9999 -9999 -9999 -9999 -9999 -9999 -9999 -9999 -9999 -9999 -9999 -9999 -9999 -9999 -9999 -9999 -9999 -9999 -9999 -9999 -9999 -9999 -9999 -9999 -9999 -9999 -9999 -9999 -9999 -9999 -9999 -9999 -9999 -9999 -9999 -9999 -9999 -9999 -9999 -9999 -9999 -9999 -9999 -9999 -9999 -9999 -9999 -9999 -9999 -9999 -9999 -9999 -9999 -9999 -9999 -9999 -9999 -9999 -9999
-9999 -9999 -9999 -9999 -9999 -9999 -9999 -9999 -9999 -9999 -9999 -9999 -9999 -9999 -9999 -9999 -9999 -9999 -9999 -9999 -9999 -9999 -9999 -9999 -9999 -9999 -9999 -9999 -9999 -9999 -9999 -9999 -9999 -9999 -9999 -9999 -9999 -9999 -9999 -9999 -9999 -9999 -9999 -9999 -9999 -9999 -9999 -9999 -9999 -9999 -9999 -9999 -9999 -9999 -9999 -9999 -9999 -9999 -9999 -9999 -9999 -9999 -9999 -9999 -9999 -9999 -9999 -9999 -9999 -9999 -9999 -9999 -9999 -9999 -9999 -9999 -9999 182.7465 183.393 237.0627 252.0783 293.6919 470.5081 567.0512 859.3279 746.0958 727.8572 552.8356 606.3875 450.8368 544.962 427.4298 416.7907 414.2616 412.9261 411.6681 411.6117 411.0583 409.624 405.8307 408.9774 403.74 403.74 403.74 404.1295 403.74 403.74 489.5073 690.3704 671.374 615.3975 525.9768 528.2184 550.9861 579.8751 583.1261 577.9275 564.8157 373.0698 338.0278 464.3107 612.0086 648.1351 544.1443 501.9666 555.6865 701.1758 946.4694 899.9843 795.6517 696.6729 605.6306 407.7888 391.0199 467.4742 389.9934 392.2221 347.0887 411.0282 190.3087 269.1406 198.9776 135.2272 84.031 74.43289 64.67194 61.80848 55.32957 48.10925 43.45124 40.13386 36.68166 34.2504 31.81304 30.36472 31.86311 29.10572 26.21919 23.54286 21.23632 19.17648 17.37985 15.94858 15.20196 14.22462 12.94116 13.35345 13.6901 14.28383 14.2338 14.42829 15.94487 15.2581 16.29777 15.71861 15.032 15.46591 17.09403 28.34951 65.89975 115.7938 279.749 186.2956 352.9826 369.9732 280.6465 306.7949 338.3133 251.3173 115.0605 125.021 54.58826 21.59504 20.39443 20.39742 20.5 21.39375 22 22.28152 20.69082 19.77275 22.90663 23.5206 23.91636 24.44999 25.0915 25.68892 27.31138 29.32487 30.41302 43.34177 37.16391 37.67265 42.61013 84.06369 201.9655 139.6651 119.777 110.2656 119.0942 136.4683 172.8904 167.0679 226.625 278.2153 449.2138 362.3932 391.9701 339.181 673.6905 542.2102 474.6829 506.0089 560.3339 430.2749 341.6546 194.3819 311.9676 631.6013 308.0196 459.7395 537.1176 624.4221 600.9071 605.7582 677.5726 663.3783 662.0685 712.5084 821.8743 840.4383 803.3854 858.5139 869.1406 819.0529 823.515 971.4633 1078.439 1225.674 1056.915 1008.85 1118.5 1120.655 1305.695 1369.447 1416.939 1443.049 1468.935 1414.505 1404.39 1189.167 1329.921 1146.206 1412.461 1486.214 1722.237 1758.755 1866.459 1853.106 1589.419 1616.154 1879.547 1876.904 -9999 -9999 -9999 -9999 -9999 -9999 -9999 -9999 -9999 -9999 -9999 -9999 -9999 -9999 -9999 -9999 -9999 -9999 -9999 -9999 -9999 -9999 -9999 -9999 -9999 -9999 -9999 -9999 -9999 -9999 -9999 -9999 -9999 -9999 -9999 -9999 -9999 -9999 -9999 -9999 -9999 -9999 -9999 -9999 -9999 -9999 -9999 -9999 -9999 -9999 -9999 -9999 -9999 -9999 -9999 -9999 -9999 -9999 -9999 -9999 -9999 -9999 -9999 -9999 -9999 -9999 -9999 -9999
-9999 -9999 -9999 -9999 -9999 -9999 -9999 -9999 -9999 -9999 -9999 -9999 -9999 -9999 -9999 -9999 -9999 -9999 -9999 -9999 -9999 -9999 -9999 -9999 -9999 -9999 -9999 -9999 -9999 -9999 -9999 -9999 -9999 -9999 -9999 -9999 -9999 -9999 -9999 -9999 -9999 -9999 -9999 -9999 -9999 -9999 -9999 -9999 -9999 -9999 -9999 -9999 -9999 -9999 -9999 -9999 -9999 -9999 -9999 -9999 -9999 -9999 -9999 -9999 -9999 -9999 -9999 -9999 -9999 -9999 -9999 -9999 -9999 -9999 -9999 -9999 -9999 258.924 223.7009 266.1635 291.9485 334.2783 429.418 595.1031 720.8499 730.7574 769.0138 569.5922 626.8005 511.5011 677.9743 438.7297 421.8412 417.669 417.0823 413.2189 413.593 413.3736 409.2798 452.5398 592.041 403.74 439.2911 403.74 458.178 432.0538 403.74 403.74 456.7807 549.381 624.1938 486.5081 545.353 646.296 572.1409 594.7083 595.5932 536.0971 429.5131 336.9024 559.4996 506.3881 567.0583 560.0773 525.1426 670.7371 744.9303 817.3837 758.9632 702.024 707.1398 650.2763 407.0999 391.3792 468.8772 350.7569 336.8489 317.4129 247.8438 192.8343 298.6684 268.4716 224.7117 86.66946 87.42001 82.74207 81.91326 74.75938 58.26439 45.45641 42.64528 40.35307 36.71342 34.20145 32.91763 32.74008 29.48484 27.12634 25.04429 22.27494 20.35162 18.64975 16.49228 15.06935 13.92004 12.93198 12.97981 12.93242 13.27686 13.53205 14.432 14.65652 16.05419 15.9369 14.42832 14.35769 15.90954 19.83894 28.33861 38.01656 47.83519 74.43903 100.5844 229.4052 212.6581 141.6781 115.2654 143.9621 135.1756 112.5095 92.0512 49.60328 20.198 19.99686 20.4 20.65798 21.20367 21.74725 22 21.34521 19.77905 20.14331 22.81858 23.0707 23.75743 23.51888 25.46148 27.02235 28.47005 29.68271 40.97704 36.81581 36.69476 37.56519 51.12244 144.7426 250.2526 119.359 106.0582 91.99184 145.6549 176.241 186.5536 180.0546 361.8724 389.8471 439.5572 284.5589 427.3704 500.9205 429.4146 450.5389 504.0845 540.9907 410.6525 207.3604 355.7765 596.1935 621.7302 598.3824 543.2048 571.8339 701.1897 617.0818 622.8583 613.4542 627.2185 690.4888 720.4786 800.9242 871.6351 882.6979 864.4823 877.8377 853.3654 834.4286 939.3796 1043.508 1016.174 936.8526 975.152 1046.634 1129.132 1336.464 1409.301 1430.722 1446.304 1454.203 1343.981 1184.974 1122.514 1093.97 1298.512 1404.102 1564.944 1691.607 1711.551 1967.318 1768.224 1429.145 1678.195 1801.047 1921.271 -9999 -9999 -9999 -9999 -9999 -9999 -9999 -9999 -9999 -9999 -9999 -9999 -9999 -9999 -9999 -9999 -9999 -9999 -9999 -9999 -9999 -9999 -9999 -9999 -9999 -9999 -9999 -9999 -9999 -9999 -9999 -9999 -9999 -9999 -9999 -9999 -9999 -9999 -9999 -9999 -9999 -9999 -9999 -9999 -9999 -9999 -9999 -9999 -9999 -9999 -9999 -9999 -9999 -9999 -9999 -9999 -9999 -9999 -9999 -9999 -9999 -9999 -9999 -9999 -9999 -9999 -9999 -9999
-9999 -9999 -9999 -9999 -9999 -9999 -9999 -9999 -9999 -9999 -9999 -9999 -9999 -9999 -9999 -9999 -9999 -9999 -9999 -9999 -9999 -9999 -9999 -9999 -9999 -9999 -9999 -9999 -9999 -9999 -9999 -9999 -9999 -9999 -9999 -9999 -9999 -9999 -9999 -9999 -9999 -9999 -9999 -9999 -9999 -9999 -9999 -9999 -9999 -9999 -9999 -9999 -9999 -9999 -9999 -9999 -9999 -9999 -9999 -9999 -9999 -9999 -9999 -9999 -9999 -9999 -9999 -9999 -9999 -9999 -9999 -9999 -9999 -9999 -9999 -9999 -9999 159.1083 351.163 281.8358 352.9628 352.8004 451.0768 421.7682 533.8969 732.6747 678.1674 644.4588 546.6347 607.9852 647.0141 434.8039 422.2214 421.5572 418.8077 423.309 417.4803 415.7884 414.3309 409.032 637.1443 461.9875 662.0813 554.7716 435.9708 403.74 403.74 403.74 403.74 403.74 403.74 405.501 406.069 528.4769 675.9702 668.4091 656.4056 576.768 469.8376 437.6497 498.4119 459.4713 470.7407 424.3748 548.8029 707.3926 839.804 756.4305 671.4898 610.2056 665.3419 673.2444 415.4173 401.4222 506.1273 313.3679 358.2489 277.3582 267.4402 257.2534 515.2982 278.1013 222.6075 100.4695 94.10746 92.73305 86.04313 91.57886 74.27043 51.8916 46.00639 41.80593 38.47454 39.13944 38.7912 35.43766 30.67549 28.01166 26.9891 24.91881 22.36911 19.32805 17.2069 15.10216 13.84143 12.932 12.90319 12.60643 12.51356 12.73375 14.43304 14.432 14.44872 15.75298 14.38622 13.74761 15.33683 17.83989 23.87649 57.22343 118.0889 157.8122 79.1216 103.1708 134.1728 96.17371 67.73213 197.1457 180.8944 98.02216 40.2509 28.83487 20.38383 19.81619 19.91104 20.37593 20.5 21.10045 21.81184 21.9184 18.49803 22.09205 22.39552 22.82337 23.59143 23.49025 25.33875 26.60136 28.16114 26.62008 28.80168 43.06069 32.94998 36.6767 40.33367 130.5381 208.1703 110.6516 83.41029 88.3737 176.9557 149.25 158.1523 173.5438 240.722 415.9612 311.5016 373.0308 457.0094 531.954 376.3327 375.6055 518.1602 527.4068 357.7763 174.3535 355.1396 524.0954 517.7382 557.4635 523.4443 588.0406 605.1906 605.8461 588.9874 601.4212 721.8909 782.0825 777.5287 843.4885 787.4116 938.7216 861.9343 866.2068 750.6564 915.8013 919.2974 999.6558 925.8914 995.8263 1001.664 1022.931 1184.39 1331.948 1377.786 1379.014 1302.096 1341.922 1261.682 954.901 1007.235 1088.208 1050.506 1284.534 1517.91 1544.117 1702.654 1840.18 1669.092 1538.117 1799.147 1906.362 1936.041 -9999 -9999 -9999 -9999 -9999 -9999 -9999 -9999 -9999 -9999 -9999 -9999 -9999 -9999 -9999 -9999 -9999 -9999 -9999 -9999 -9999 -9999 -9999 -9999 -9999 -9999 -9999 -9999 -9999 -9999 -9999 -9999 -9999 -9999 -9999 -9999 -9999 -9999 -9999 -9999 -9999 -9999 -9999 -9999 -9999 -9999 -9999 -9999 -9999 -9999 -9999 -9999 -9999 -9999 -9999 -9999 -9999 -9999 -9999 -9999 -9999 -9999 -9999 -9999 -9999 -9999 -9999 -9999
-9999 -9999 -9999 -9999 -9999 -9999 -9999 -9999 -9999 -9999 -9999 -9999 -9999 -9999 -9999 -9999 -9999 -9999 -9999 -9999 -9999 -9999 -9999 -9999 -9999 -9999 -9999 -9999 -9999 -9999 -9999 -9999 -9999 -9999 -9999 -9999 -9999 -9999 -9999 -9999 -9999 -9999 -9999 -9999 -9999 -9999 -9999 -9999 -9999 -9999 -9999 -9999 -9999 -9999 -9999 -9999 -9999 -9999 -9999 -9999 -9999 -9999 -9999 -9999 -9999 -9999 -9999 -9999 -9999 -9999 -9999 -9999 -9999 -9999 -9999 -9999 -9999 267.1872 245.2112 235.0771 371.6932 489.0317 339.164 592.7349 685.8917 728.4114 540.3016 553.7156 615.6556 595.6047 461.9782 440.8462 425.2576 423.7416 423.1905 433.6341 432.1924 421.6177 419.5553 496.0108 743.1942 676.2214 981.0826 618.2039 403.9902 403.74 403.74 453.9782 403.74 403.74 406.2928 403.74 408.877 424.3589 559.91 712.243 646.9489 477.0015 436.1793 327.521 506.8497 439.8348 532.6121 513.179 673.2383 726.276 788.681 776.2231 577.1225 489.9699 704.9279 627.4296 450.5764 404.1885 530.0155 379.0003 413.5261 353.8044 270.5396 313.7863 572.1923 244.2594 164.0193 110.3918 98.24656 86.20717 98.40766 109.2421 93.11647 56.83915 49.12531 41.88221 41.26867 40.83403 36.31467 33.72106 30.89078 31.99992 28.34461 26.29689 22.69805 19.60314 17.25264 14.51407 13.53944 12.91614 12.07615 11.61618 12.15321 13.7462 14.18442 14.432 14.74106 15.11418 14.61378 13.32229 14.26011 14.52296 17.11289 21.35013 24.77141 139.3414 139.5872 171.7839 121.0882 70.18544 56.68419 98.30395 103.3496 54.92163 22.8115 22.02513 19.92825 19.07325 19.33463 19.99591 20.5 20.59272 20.51637 18.86174 18.84804 22.05962 22.30534 23.38925 24.8231 23.36908 23.72204 25.46352 25.12348 27.65306 40.77708 29.95855 29.73871 30.86643 37.87188 73.94214 142.1587 108.4441 80.81263 93.12155 166.8272 116.4183 157.2684 281.0656 152.1993 238.3866 297.8888 427.2195 472.1379 343.8466 345.1034 348.4398 352.4988 430.185 211.0292 312.1009 359.8678 384.921 464.1396 514.9502 605.4148 580.8915 567.3857 530.2602 640.1919 745.7933 853.2368 740.8202 554.2997 620.0235 740.8831 925.1028 875.4276 673.6247 796.0001 873.9575 849.3544 1027.977 852.6699 1024.932 1047.002 1013.316 1136.746 1177.796 1217.158 1272.615 1124.654 1304.347 1061.73 892.4824 1227.901 1339.516 1369.146 1460.743 1360.185 1604.694 1766.591 1642.696 1485.865 1751.883 1816.782 1900.959 2036.335 -9999 -9999 -9999 -9999 -9999 -9999 -9999 -9999 -9999 -9999 -9999 -9999 -9999 -9999 -9999 -9999 -9999 -9999 -9999 -9999 -9999 -9999 -9999 -9999 -9999 -9999 -9999 -9999 -9999 -9999 -9999 -9999 -9999 -9999 -9999 -9999 -9999 -9999 -9999 -9999 -9999 -9999 -9999 -9999 -9999 -9999 -9999 -9999 -9999 -9999 -9999 -9999 -9999 -9999 -9999 -9999 -9999 -9999 -9999 -9999 -9999 -9999 -9999 -9999 -9999 -9999 -9999 -9999
-9999 -9999 -9999 -9999 -9999 -9999 -9999 -9999 -9999 -9999 -9999 -9999 -9999 -9999 -9999 -9999 -9999 -9999 -9999 -9999 -9999 -9999 -9999 -9999 -9999 -9999 -9999 -9999 -9999 -9999 -9999 -9999 -9999 -9999 -9999 -9999 -9999 -9999 -9999 -9999 -9999 -9999 -9999 -9999 -9999 -9999 -9999 -9999 -9999 -9999 -9999 -9999 -9999 -9999 -9999 -9999 -9999 -9999 -9999 -9999 -9999 -9999 -9999 -9999 -9999 -9999 -9999 -9999 -9999 -9999 -9999 -9999 -9999 -9999 -9999 -9999 -9999 299.1508 206.4307 221.4047 489.5201 306.9214 647.0228 564.8322 708.7073 666.7943 588.6214 635.3646 559.6879 629.0783 488.7175 447.0686 429.3398 441.523 442.4846 434.9906 434.7921 448.6212 425.515 583.738 766.5881 956.9984 1035.191 700.3593 484.5164 403.74 403.74 403.74 429.1166 403.74 403.74 425.7926 459.6458 523.4318 485.8013 567.2011 614.3297 437.0356 422.1231 350.5484 474.348 477.1313 489.0454 483.3748 664.7314 744.4123 699.8291 759.5083 733.9141 489.7752 596.9636 556.589 448.4272 425.4555 541.8189 387.4877 448.4348 499.778 266.3815 478.3589 499.6204 309.9768 140.2408 110.6647 106.9307 92.74051 81.912 74.54932 60.57012 64.02332 52.50933 47.16019 47.66027 43.91942 40.68516 36.1486 31.83115 29.62234 26.51576 24.65454 22.52242 20.20117 17.90442 15.76801 13.09743 12.90165 11.82472 11.65394 13.42507 13.83609 12.832 14.50761 15.73379 14.932 15.88209 12.92222 13.26784 15.70741 14.42096 12.94096 48.2764 56.83937 100.5574 64.44757 97.3756 66.21886 51.02254 44.2924 79.68935 34.43061 19.92025 18.88786 18.69941 18.7 18.96474 19.60421 20.5 20.50088 19.85922 18.5021 17.06793 20.27339 21.7392 22.04834 22.47526 22.592 22.30726 23.592 24.77509 27.39888 34.50467 28.23585 28.92625 31.10281 37.55924 73.99789 142.6019 96.25932 77.90166 85.94852 153.2054 114.2527 142.6918 128.3362 169.0479 214.1991 411.0217 473.0327 428.0816 283.6567 267.0977 173.305 159.811 293.8704 346.9128 167.8326 256.9769 437.246 505.9907 488.3296 482.4269 522.2465 579.6416 640.1072 753.7102 648.6551 597.3366 698.3232 688.8608 780.6571 765.9142 719.9079 615.0595 607.4772 726.002 815.0614 833.9504 786.798 864.1251 867.902 1109.02 834.1657 803.3633 999.4337 1084.833 1180.625 915.6359 952.9786 878.2264 867.9774 1083.974 1168.672 1250.401 1118.528 1145.202 1467.57 1644.902 1394.865 1726.739 1711.657 1806.889 1773.666 2014.426 -9999 -9999 -9999 -9999 -9999 -9999 -9999 -9999 -9999 -9999 -9999 -9999 -9999 -9999 -9999 -9999 -9999 -9999 -9999 -9999 -9999 -9999 -9999 -9999 -9999 -9999 -9999 -9999 -9999 -9999 -9999 -9999 -9999 -9999 -9999 -9999 -9999 -9999 -9999 -9999 -9999 -9999 -9999 -9999 -9999 -9999 -9999 -9999 -9999 -9999 -9999 -9999 -9999 -9999 -9999 -9999 -9999 -9999 -9999 -9999 -9999 -9999 -9999 -9999 -9999 -9999 -9999 -9999
-9999 -9999 -9999 -9999 -9999 -9999 -9999 -9999 -9999 -9999 -9999 -9999 -9999 -9999 -9999 -9999 -9999 -9999 -9999 -9999 -9999 -9999 -9999 -9999 -9999 -9999 -9999 -9999 -9999 -9999 -9999 -9999 -9999 -9999 -9999 -9999 -9999 -9999 -9999 -9999 -9999 -9999 -9999 -9999 -9999 -9999 -9999 -9999 -9999 -9999 -9999 -9999 -9999 -9999 -9999 -9999 -9999 -9999 -9999 -9999 -9999 -9999 -9999 -9999 -9999 -9999 -9999 -9999 -9999 -9999 -9999 -9999 -9999 -9999 -9999 -9999 -9999 140.147 281.7744 485.897 482.2853 549.0725 498.348 671.3912 699.1614 795.3338 579.0255 544.3596 562.1498 523.9048 466.597 432.6484 443.9601 464.2701 445.5275 448.1901 427.5888 456.5955 505.7303 595.6085 863.4388 1099.091 1245.937 852.4339 445.5567 403.74 403.74 403.74 450.9116 448.5852 539.5828 529.3386 622.533 640.6541 592.3157 526.0179 591.0874 439.9864 431.1571 321.3879 424.2305 528.6011 443.9526 520.8292 646.5894 698.9724 752.3981 594.3297 738.9123 495.9888 510.8405 530.7173 394.1647 468.3361 503.5414 383.1152 458.4643 538.5181 332.8488 538.5058 476.39 354.6094 151.8663 131.7049 136.6244 143.4821 123.8995 114.5073 87.34481 79.07097 63.09989 53.42823 51.31282 43.91641 39.13888 35.78274 32.94883 29.05131 28.20973 24.71667 20.83528 20.043 18.82677 15.93739 13.04077 12.93436 12.13514 11.77413 12.44003 12.37159 13.38265 15.43544 15.93711 15.93801 16.49279 12.83555 12.932 13.43607 14.30303 14.34627 13.01093 15.88192 53.18528 82.21986 69.76068 38.0489 76.36874 39.07545 30.05654 20.99629 17.56289 17.74452 18 18.3 18.9 19 19.71019 19.89864 20.49891 18.18341 17.84439 21.39246 21.49544 20.71036 21.98413 23.59673 23.59782 25.30775 26.48882 26.54015 25.47105 28.22311 30.20477 41.83727 50.40368 152.0843 169.6574 76.39223 60.03754 83.23212 105.4523 153.6052 74.50098 115.0524 272.1116 248.669 343.8397 379.948 362.0771 159.813 380.5502 309.7783 403.4518 443.7002 336.3583 274.7233 391.813 314.9692 373.5094 438.981 421.453 337.817 368.7922 617.178 495.3298 541.4971 703.4723 639.0201 623.7529 764.6908 887.1457 956.5459 962.2607 863.9709 852.2377 697.3526 903.2265 950.9711 788.9622 816.1425 729.0725 883.0954 826.1323 801.1625 736.5867 789.2043 751.3428 867.0945 883.7617 931.0901 873.8176 873.1041 896.8134 1057.95 1341.639 1055.144 1141.594 1706.352 1616.877 1674.571 1735.729 1759.263 1908.218 -9999 -9999 -9999 -9999 -9999 -9999 -9999 -9999 -9999 -9999 -9999 -9999 -9999 -9999 -9999 -9999 -9999 -9999 -9999 -9999 -9999 -9999 -9999 -9999 -9999 -9999 -9999 -9999 -9999 -9999 -9999 -9999 -9999 -9999 -9999 -9999 -9999 -9999 -9999 -9999 -9999 -9999 -9999 -9999 -9999 -9999 -9999 -9999 -9999 -9999 -9999 -9999 -9999 -9999 -9999 -9999 -9999 -9999 -9999 -9999 -9999 -9999 -9999 -9999 -9999 -9999 -9999 -9999
-9999 -9999 -9999 -9999 -9999 -9999 -9999 -9999 -9999 -9999 -9999 -9999 -9999 -9999 -9999 -9999 -9999 -9999 -9999 -9999 -9999 -9999 -9999 -9999 -9999 -9999 -9999 -9999 -9999 -9999 -9999 -9999 -9999 -9999 -9999 -9999 -9999 -9999 -9999 -9999 -9999 -9999 -9999 -9999 -9999 -9999 -9999 -9999 -9999 -9999 -9999 -9999 -9999 -9999 -9999 -9999 -9999 -9999 -9999 -9999 -9999 -9999 -9999 -9999 -9999 -9999 -9999 -9999 -9999 -9999 -9999 -9999 -9999 -9999 -9999 -9999 -9999 125.04 301.6909 408.8526 594.8561 665.5536 574.0422 732.4796 851.981 806.2858 754.2041 669.5909 603.7341 541.7464 447.0583 438.812 489.1121 470.8607 485.5397 460.2708 439.9176 513.9888 531.8102 738.3467 811.0529 1047.682 917.845 685.1087 403.74 403.74 403.74 403.74 422.1494 525.5928 416.8637 581.2268 554.3671 511.8288 500.5959 537.0089 476.7752 454.074 547.5654 361.1294 375.081 414.7808 459.6829 456.4933 620.3516 530.3319 632.325 566.6384 668.9105 548.827 424.7361 527.1894 384.3566 604.8762 486.7499 429.8271 495.9592 478.0853 426.4444 778.0486 443.1938 363.9317 156.4826 149.7013 146.8744 133.8308 152.4511 166.554 133.2627 104.6954 77.95219 60.03696 54.16423 46.28447 40.14044 35.57401 32.13475 29.12692 26.83838 25.14745 23.65243 21.67964 18.68399 15.72376 13.14792 12.94 12.94 11.49171 11.94426 13.74441 14.26351 15.55007 15.92081 14.8443 14.53688 12.932 12.932 12.9386 13.03756 13.3268 13.41741 16.35852 17.90378 19.6018 37.95943 16.73241 22.37927 26.00791 24.22906 18.40644 17.16578 17.19998 17.3 17.89765 18.50868 18.9 18.79694 19.51131 20.41908 17.40108 18.09372 20.36788 22.2226 22.29779 20.51074 23.192 25.14086 27.05776 28.07302 27.80601 27.79072 29.92733 42.19114 53.64209 46.88403 73.5411 86.63891 58.1328 52.34865 57.61707 66.78065 76.34503 133.1436 199.2032 166.0658 209.3327 238.4345 315.616 355.7322 175.2322 395.0884 474.2998 371.528 383.8108 347.9596 277.8959 417.0584 596.0242 593.3591 400.4678 592.0383 605.78 482.2579 484.6237 642.4513 623.7719 719.9643 762.9924 758.2944 750.7332 782.0923 864.1947 1006.229 950.5278 932.6835 841.1311 1026.681 1018.445 973.5955 908.2279 1089.433 1186.881 951.935 1059.096 850.9177 1142.662 1011.201 921.9594 1047.117 1102.367 1018.943 1087.143 1011.842 943.5151 1096.746 1171.44 1583.667 1575.994 1644.754 1737.758 1808.819 1807.069 1898.304 -9999 -9999 -9999 -9999 -9999 -9999 -9999 -9999 -9999 -9999 -9999 -9999 -9999 -9999 -9999 -9999 -9999 -9999 -9999 -9999 -9999 -9999 -9999 -9999 -9999 -9999 -9999 -9999 -9999 -9999 -9999 -9999 -9999 -9999 -9999 -9999 -9999 -9999 -9999 -9999 -9999 -9999 -9999 -9999 -9999 -9999 -9999 -9999 -9999 -9999 -9999 -9999 -9999 -9999 -9999 -9999 -9999 -9999 -9999 -9999 -9999 -9999 -9999 -9999 -9999 -9999 -9999 -9999
-9999 -9999 -9999 -9999 -9999 -9999 -9999 -9999 -9999 -9999 -9999 -9999 -9999 -9999 -9999 -9999 -9999 -9999 -9999 -9999 -9999 -9999 -9999 -9999 -9999 -9999 -9999 -9999 -9999 -9999 -9999 -9999 -9999 -9999 -9999 -9999 -9999 -9999 -9999 -9999 -9999 -9999 -9999 -9999 -9999 -9999 -9999 -9999 -9999 -9999 -9999 -9999 -9999 -9999 -9999 -9999 -9999 -9999 -9999 -9999 -9999 -9999 -9999 -9999 -9999 -9999 -9999 -9999 -9999 -9999 -9999 -9999 -9999 -9999 -9999 -9999 -9999 190.7459 343.8472 359.6602 370.8161 438.0802 606.8674 819.7734 801.7396 911.9495 757.5475 568.0333 495.1151 576.1992 484.7645 515.343 463.235 477.4857 471.8536 446.1195 473.1865 502.1835 631.7208 576.7657 675.6823 717.5079 786.3243 655.7058 439.5991 403.74 403.74 403.74 403.74 446.0626 411.7733 455.0495 559.7498 456.4635 453.2776 482.8615 484.7208 424.1429 479.1492 319.2664 334.7044 362.8633 490.0377 433.9084 564.1682 486.1795 666.8012 623.9854 679.5733 689.1316 554.7995 549.034 382.4515 569.4694 539.9891 378.0741 410.7885 477.2705 504.3621 731.9123 421.4621 363.5944 166.3403 144.9542 133.181 148.5672 175.9323 178.9216 146.1461 93.90064 68.09332 63.17974 50.75631 44.02213 38.92929 34.30824 31.69155 29.72731 26.82046 23.94987 22.06593 20.18216 18.34854 15.50486 13.31243 12.94 12.9317 11.73748 14.25594 13.81575 14.04605 14.32744 13.82662 14.65 14.41428 12.53181 12.65208 12.4334 12.24824 12.62807 12.93183 12.93138 13.2539 12.833 13.09568 14.34226 18.42923 21.77123 20.17225 15.94611 16.43908 16.7791 17.09624 17.50227 17.9194 18.6897 18.69567 19.12248 20.49438 17.79772 19.15814 20.36768 20.31292 20.97437 21.07007 22.15991 24.5005 26.48184 29.69724 31.20548 29.97433 34.63536 50.21509 47.21552 42.59286 43.90232 47.82028 51.04098 70.80399 76.18281 93.20472 141.6813 120.664 209.8073 98.47066 272.0383 336.6559 276.9916 177.5225 233.392 319.7591 464.9331 460.4698 440.9258 370.4031 404.4926 574.7008 519.0455 570.528 514.1466 579.9653 631.8821 530.769 624.6099 721.6942 807.3359 802.9706 738.4998 789.6951 765.8101 813.7444 819.3757 906.8954 909.9537 963.5117 1039.714 1077.287 1182.689 1141.273 1107.975 1225.697 1262.672 1241.998 1259.734 1086.996 1325.443 1128.329 1144.781 939.6124 1123.479 996.9128 1208.746 1202.797 944.2706 1099.692 1007.936 1021.819 1491.915 1633.646 1718.441 1792.649 1880.03 2031.564 -9999 -9999 -9999 -9999 -9999 -9999 -9999 -9999 -9999 -9999 -9999 -9999 -9999 -9999 -9999 -9999 -9999 -9999 -9999 -9999 -9999 -9999 -9999 -9999 -9999 -9999 -9999 -9999 -9999 -9999 -9999 -9999 -9999 -9999 -9999 -9999 -9999 -9999 -9999 -9999 -9999 -9999 -9999 -9999 -9999 -9999 -9999 -9999 -9999 -9999 -9999 -9999 -9999 -9999 -9999 -9999 -9999 -9999 -9999 -9999 -9999 -9999 -9999 -9999 -9999 -9999 -9999 -9999
-9999 -9999 -9999 -9999 -9999 -9999 -9999 -9999 -9999 -9999 -9999 -9999 -9999 -9999 -9999 -9999 -9999 -9999 -9999 -9999 -9999 -9999 -9999 -9999 -9999 -9999 -9999 -9999 -9999 -9999 -9999 -9999 -9999 -9999 -9999 -9999 -9999 -9999 -9999 -9999 -9999 -9999 -9999 -9999 -9999 -9999 -9999 -9999 -9999 -9999 -9999 -9999 -9999 -9999 -9999 -9999 -9999 -9999 -9999 -9999 -9999 -9999 -9999 -9999 -9999 -9999 -9999 -9999 -9999 -9999 -9999 -9999 -9999 -9999 -9999 -9999 -9999 195.6319 392.3521 506.1415 450.8326 583.278 453.7937 727.5129 948.3262 966.8193 830.1783 617.5535 567.6222 632.9119 556.0008 481.5436 471.9675 463.1204 468.7479 612.1766 523.1231 518.3867 566.6134 541.2584 636.0431 658.8578 576.116 564.5764 563.4302 444.7895 524.0891 403.74 403.74 403.74 469.2809 426.1805 564.269 430.8822 443.1338 433.7519 481.2988 449.6955 377.9337 359.8672 304.7412 339.9601 410.8346 448.7405 448.8572 491.1326 580.8523 589.9583 645.3035 508.5352 635.642 600.6279 525.2485 433.3961 578.9423 351.5927 403.4225 447.0178 490.1055 696.7068 398.6231 390.4449 183.2308 183.0419 159.6625 186.0027 195.0197 167.5454 132.7752 76.39231 100.0044 63.01211 52.77465 43.56557 39.90053 36.72194 32.71001 29.84346 27.11459 23.89831 21.68809 20.08743 18.15119 15.88681 13.65053 12.94 12.43585 12.58536 13.96818 12.53487 14.16019 14.25306 13.35793 14.49117 15.62232 12.43253 12.93392 12.9432 12.03764 12.07634 12.72816 12.0274 12.73515 12.66383 12.533 13.36509 14.32973 16.16083 15.89977 15.90635 15.9 16.22135 16.79382 17.21007 17.6 17.85873 18.99991 18.96208 20.00941 16.63401 19.95182 20.46491 18.12426 20.71708 22.10052 23.11674 26.52818 28.40928 29.91345 36.96692 31.83664 31.99461 32.15565 39.83906 43.06559 46.20451 48.10931 54.98071 53.18019 60.17629 68.09776 84.40286 127.6694 63.14839 68.17996 361.5719 289.4931 333.2155 161.2897 270.7317 295.1378 411.5958 462.7134 446.9291 407.2368 442.2572 578.7614 575.2939 585.1849 690.8063 630.3323 647.0861 600.6649 674.4805 668.6948 785.8221 829.6228 840.4246 802.2372 771.8267 823.2899 855.8334 914.8392 928.1393 935.0497 1098.945 1145.36 1110.015 1199.403 1210.99 1227.958 1184.515 1197.1 1292.524 1306.094 1373.516 1090.732 1236.693 1071.256 1232.099 1117.707 1231.953 1296.77 1289.76 1198.13 1412.179 1019.486 1398.043 1483.47 1656.356 1665.844 1797.605 1876.426 -9999 -9999 -9999 -9999 -9999 -9999 -9999 -9999 -9999 -9999 -9999 -9999 -9999 -9999 -9999 -9999 -9999 -9999 -9999 -9999 -9999 -9999 -9999 -9999 -9999 -9999 -9999 -9999 -9999 -9999 -9999 -9999 -9999 -9999 -9999 -9999 -9999 -9999 -9999 -9999 -9999 -9999 -9999 -9999 -9999 -9999 -9999 -9999 -9999 -9999 -9999 -9999 -9999 -9999 -9999 -9999 -9999 -9999 -9999 -9999 -9999 -9999 -9999 -9999 -9999 -9999 -9999 -9999
-9999 -9999 -9999 -9999 -9999 -9999 -9999 -9999 -9999 -9999 -9999 -9999 -9999 -9999 -9999 -9999 -9999 -9999 -9999 -9999 -9999 -9999 -9999 -9999 -9999 -9999 -9999 -9999 -9999 -9999 -9999 -9999 -9999 -9999 -9999 -9999 -9999 -9999 -9999 -9999 -9999 -9999 -9999 -9999 -9999 -9999 -9999 -9999 -9999 -9999 -9999 -9999 -9999 -9999 -9999 -9999 -9999 -9999 -9999 -9999 -9999 -9999 -9999 -9999 -9999 -9999 -9999 -9999 -9999 -9999 -9999 -9999 -9999 -9999 -9999 -9999 -9999 272.5657 403.8756 571.5557 722.6748 775.5109 562.5663 649.1684 693.9208 711.2275 722.717 775.5988 658.6047 644.8257 648.282 505.159 540.4949 486.8231 475.5764 662.4633 605.1473 548.813 548.6867 572.8114 641.5896 601.5214 552.0824 548.9387 611.1418 598.6154 530.94 403.74 403.74 403.74 403.74 420.6122 414.4053 419.8939 432.3697 454.5754 522.4316 537.6767 538.3129 565.8882 343.4928 328.4053 401.9109 481.6569 380.3195 412.8857 452.5062 447.1902 523.953 571.4198 521.8298 553.9131 514.1062 403.0901 487.9435 347.8768 383.4949 429.4233 539.0916 697.297 410.2025 369.9592 198.6008 209.2906 158.6897 163.9839 131.037 141.7095 110.2137 142.9678 93.67847 71.25034 53.88179 47.00355 44.97439 41.47474 35.63986 31.10814 27.96529 24.70096 21.97369 20.10187 17.83045 15.45688 13.42181 12.94 11.90606 12.69889 12.0347 12.12526 12.83791 14.15597 12.936 14.03338 14.43572 12.936 12.60551 12.46313 11.6026 11.9919 12.16879 12.62922 11.90701 12.22546 12.53195 13.33728 14.00971 14.41998 15.09494 15.56871 15.8 15.9 16.40853 17.09132 17.49203 17.72762 18.58629 18.87173 16.23771 19.01058 17.87079 20.61223 20.44224 21.09477 22.07521 26.57488 26.85261 28.78347 33.37625 35.43428 37.48532 34.75358 34.31758 39.88725 42.30059 45.66106 45.03768 69.93353 81.64285 66.19164 79.39507 101.7485 63.03825 76.63923 125.7182 239.6878 80.20771 88.44548 260.3439 328.5664 393.5479 449.0448 381.954 375.2444 403.0824 445.4193 572.575 566.9128 596.7878 635.4813 647.3836 642.3641 644.4943 780.5959 661.1189 751.2743 826.9236 899.7424 925.146 840.4426 999.1467 1033.345 935.574 1042.308 959.4019 998.7808 1137.722 1175.379 1163.955 1076.24 1035.93 1031.953 1067.734 1146.218 1207.115 1235.815 1315.57 1414.495 1371.809 1227.657 1197.612 1281.706 1348.039 1315.06 1342.203 1435.671 1433.077 1250.297 1660.654 1772.571 1644.525 1772.895 1574.591 -9999 -9999 -9999 -9999 -9999 -9999 -9999 -9999 -9999 -9999 -9999 -9999 -9999 -9999 -9999 -9999 -9999 -9999 -9999 -9999 -9999 -9999 -9999 -9999 -9999 -9999 -9999 -9999 -9999 -9999 -9999 -9999 -9999 -9999 -9999 -9999 -9999 -9999 -9999 -9999 -9999 -9999 -9999 -9999 -9999 -9999 -9999 -9999 -9999 -9999 -9999 -9999 -9999 -9999 -9999 -9999 -9999 -9999 -9999 -9999 -9999 -9999 -9999 -9999 -9999 -9999 -9999 -9999
-9999 -9999 -9999 -9999 -9999 -9999 -9999 -9999 -9999 -9999 -9999 -9999 -9999 -9999 -9999 -9999 -9999 -9999 -9999 -9999 -9999 -9999 -9999 -9999 -9999 -9999 -9999 -9999 -9999 -9999 -9999 -9999 -9999 -9999 -9999 -9999 -9999 -9999 -9999 -9999 -9999 -9999 -9999 -9999 -9999 -9999 -9999 -9999 -9999 -9999 -9999 -9999 -9999 -9999 -9999 -9999 -9999 -9999 -9999 -9999 -9999 -9999 -9999 -9999 -9999 -9999 -9999 -9999 -9999 -9999 -9999 -9999 -9999 -9999 -9999 -9999 -9999 202.7926 410.0438 571.0685 708.4536 856.1922 708.4646 497.2558 592.3593 708.3293 635.8721 673.7731 847.0558 731.1157 593.1823 550.2748 510.7903 462.6508 513.2466 615.8651 724.7153 588.3187 703.0878 617.8572 662.767 627.8069 558.0203 601.7159 567.584 592.7789 572.5527 493.2784 403.74 403.74 403.74 414.9335 419.8701 460.8295 606.3215 594.5745 536.7672 539.05 658.286 391.9266 447.7671 326.3528 342.965 348.7977 362.7141 306.5348 452.8507 553.2825 481.2659 591.8026 637.7907 553.3628 525.3558 521.4802 372.753 348.8615 492.7086 465.5112 662.9381 619.723 426.202 357.8283 196.8372 188.2267 168.8306 151.2113 117.6049 99.74284 152.5452 183.2764 104.3097 78.88958 59.42535 53.70112 52.86564 47.34111 40.20615 34.1329 30.2166 26.12062 22.88458 20.34218 17.82162 15.1722 12.8132 12.35844 11.5374 11.1442 11.10597 12.28778 13.79594 14.44942 12.92643 13.60342 14.436 12.94237 12.20553 11.88194 11.5259 11.59194 11.523 11.71035 11.54833 11.84358 11.96192 12.91935 13.2399 13.9376 14.39557 15.00167 15.44861 15.9 16.31685 17.15201 17.48421 17.5 18.00332 18.41412 17.49232 19.00403 18.616 20.33642 19.82278 20.67648 24.51547 26.41802 26.59051 27.96333 27.7972 31.17994 31.18481 38.57299 33.70672 37.7545 31.27491 51.57342 89.98966 81.82074 96.36278 104.7178 111.0924 145.2468 159.6669 164.6517 164.5829 103.0229 289.6295 197.8345 219.8892 271.3529 354.4335 307.6585 381.1117 386.4862 373.2182 401.5957 414.5441 434.5084 546.535 691.0692 681.8073 667.7853 689.7127 736.8254 698.4485 759.7665 787.1996 812.1765 821.0594 811.6834 814.4042 842.5953 907.0192 1002.459 1107.732 1131.587 1056.501 1018.917 984.0983 954.9169 1002.025 1089.845 1166.924 1241.47 1294.618 1311.134 1399.213 1418.306 1434.242 1336.723 1382.907 1521.059 1580.388 1469.766 1376.031 1429.018 1571.395 1503.543 1397.249 1621.148 1587.664 1528.944 1529.432 -9999 -9999 -9999 -9999 -9999 -9999 -9999 -9999 -9999 -9999 -9999 -9999 -9999 -9999 -9999 -9999 -9999 -9999 -9999 -9999 -9999 -9999 -9999 -9999 -9999 -9999 -9999 -9999 -9999 -9999 -9999 -9999 -9999 -9999 -9999 -9999 -9999 -9999 -9999 -9999 -9999 -9999 -9999 -9999 -9999 -9999 -9999 -9999 -9999 -9999 -9999 -9999 -9999 -9999 -9999 -9999 -9999 -9999 -9999 -9999 -9999 -9999 -9999 -9999 -9999 -9999 -9999 -9999
-9999 -9999 -9999 -9999 -9999 -9999 -9999 -9999 -9999 -9999 -9999 -9999 -9999 -9999 -9999 -9999 -9999 -9999 -9999 -9999 -9999 -9999 -9999 -9999 -9999 -9999 -9999 -9999 -9999 -9999 -9999 -9999 -9999 -9999 -9999 -9999 -9999 -9999 -9999 -9999 -9999 -9999 -9999 -9999 -9999 -9999 -9999 -9999 -9999 -9999 -9999 -9999 -9999 -9999 -9999 -9999 -9999 -9999 -9999 -9999 -9999 -9999 -9999 -9999 -9999 -9999 -9999 -9999 -9999 -9999 -9999 -9999 -9999 -9999 -9999 -9999 -9999 175.8596 354.8011 527.7683 820.6006 843.7792 792.7278 704.7675 577.2476 839.3261 769.5655 742.6733 805.9482 772.8895 634.8802 579.6746 531.8836 470.2012 558.0849 682.3369 808.6912 689.3386 711.6567 671.4977 658.2504 681.0368 590.3332 573.1057 598.5683 496.1899 525.0259 467.2218 580.3063 436.3966 433.661 403.74 429.8597 475.1341 569.0827 576.2804 579.1628 575.2538 584.2202 490.1455 371.1022 327.3164 347.3574 320.1661 336.1194 316.2921 400.2612 394.966 500.6095 556.8375 622.1758 499.1424 547.5957 563.5823 481.5399 329.9592 495.6454 508.4543 729.8199 531.9028 419.7056 269.0291 215.0903 144.0044 123.0563 129.0349 143.3827 213.2092 214.5698 179.3802 127.0847 91.34703 73.99014 62.09785 59.68815 52.19959 46.07927 40.59525 31.60444 27.24684 23.77861 20.79603 17.18594 14.87728 12.5283 12.09815 10.62256 10.436 10.73142 12.1922 12.336 13.03685 12.9407 13.22583 14.44382 13.05649 11.85287 11.21977 11.42144 11.43206 11.4247 10.72002 11.423 11.42541 11.42185 11.69796 12.82753 13.42828 14.37946 14.39679 14.99646 15.6 15.89034 16.50815 17.20992 17.39943 17.5 18.09885 18.76912 18.90409 17.4653 19.17735 21.68804 16.15404 22.91384 26.05228 25.05035 24.31059 29.24973 31.1792 35.64035 32.39056 34.2943 32.46088 38.5658 49.17013 66.62008 84.68109 88.3869 104.275 172.6678 190.2731 215.9273 231.0677 174.5548 168.6383 315.6564 299.8031 301.112 375.0489 291.0239 460.4506 421.6975 389.3317 440.0284 521.8038 531.5228 553.3196 627.61 658.9877 668.097 621.9582 701.7636 649.259 653.2812 659.1877 675.2477 738.8522 742.379 767.0998 819.721 786.8831 870.436 1034.508 996.6742 984.4277 936.255 936.255 991.1943 1233.718 1136.583 1135.445 1154.877 1164.062 1335.764 1218.298 1257.499 1304.285 1444.66 1486.962 1544.281 1459.118 1580.555 1631.65 1660.754 1661.963 1760.862 1574.814 1556.966 1439.887 1545.299 1528.372 1537.258 -9999 -9999 -9999 -9999 -9999 -9999 -9999 -9999 -9999 -9999 -9999 -9999 -9999 -9999 -9999 -9999 -9999 -9999 -9999 -9999 -9999 -9999 -9999 -9999 -9999 -9999 -9999 -9999 -9999 -9999 -9999 -9999 -9999 -9999 -9999 -9999 -9999 -9999 -9999 -9999 -9999 -9999 -9999 -9999 -9999 -9999 -9999 -9999 -9999 -9999 -9999 -9999 -9999 -9999 -9999 -9999 -9999 -9999 -9999 -9999 -9999 -9999 -9999 -9999 -9999 -9999 -9999 -9999
-9999 -9999 -9999 -9999 -9999 -9999 -9999 -9999 -9999 -9999 -9999 -9999 -9999 -9999 -9999 -9999 -9999 -9999 -9999 -9999 -9999 -9999 -9999 -9999 -9999 -9999 -9999 -9999 -9999 -9999 -9999 -9999 -9999 -9999 -9999 -9999 -9999 -9999 -9999 -9999 -9999 -9999 -9999 -9999 -9999 -9999 -9999 -9999 -9999 -9999 -9999 -9999 -9999 -9999 -9999 -9999 -9999 -9999 -9999 -9999 -9999 -9999 -9999 -9999 -9999 -9999 -9999 -9999 -9999 -9999 -9999 -9999 -9999 -9999 -9999 -9999 -9999 136.3799 311.5855 475.1943 730.4518 805.9439 792.1437 781.0951 574.1746 622.2427 881.9921 683.3391 741.0128 795.407 608.8039 612.7482 613.4342 601.4177 630.1459 684.5536 737.6055 836.0066 719.0635 725.6926 702.955 678.6086 648.038 586.7778 582.3879 571.5745 490.2356 430.3068 430.961 584.0331 435.2317 403.74 430.7499 464.4356 490.9501 553.8488 492.3784 518.3895 476.7935 477.5112 534.4548 527.4473 550.2891 415.3114 389.4786 294.4059 383.9962 475.25 538.0942 582.5943 568.503 478.6786 412.0146 549.0595 379.5215 314.1772 558.1636 541.6265 770.5394 509.3182 484.2647 262.5304 171.8087 166.9174 162.1169 181.6903 253.2174 212.8671 163.1239 180.7207 147.0111 94.6897 78.5138 70.96528 65.85207 58.69419 50.11188 40.44405 33.90611 29.55686 25.35196 21.04272 18.07388 15.43897 12.62343 12.73453 10.70071 9.948314 10.38792 12.19622 12.336 12.83416 11.72754 12.23255 13.336 12.93585 11.7164 11.423 11.423 11.423 11.41847 10.93949 11.423 11.423 11.423 11.72265 12.79765 12.907 13.7996 14.29906 14.60284 15.54545 15.87859 15.99213 16.85158 16.83837 17.50104 17.85059 18.12445 18.98297 17.74944 21.7973 21.74155 23.58901 23.55806 23.8239 25.06046 24.86756 26.21902 27.73497 28.10009 33.3249 32.301 33.9208 39.66695 61.82347 72.55304 82.37035 92.52757 128.7885 154.9866 198.0691 214.7263 281.2006 238.9546 238.616 289.6407 325.8244 341.8734 359.1242 439.9356 462.186 447.6058 416.256 448.0074 509.4062 550.0851 595.6135 591.9967 656.5709 699.9832 649.8864 641.6025 724.2303 740.8109 823.4205 851.7696 808.7095 779.8574 784.2739 814.2891 950.4167 963.9904 1014.517 949.389 956.1948 936.2585 961.3412 1128.547 1047.451 1086.3 1142.145 1286.489 1323.754 1358.299 1331.862 1389.599 1435.935 1470.663 1376.919 1436.462 1557.974 1575.529 1594.596 1669.182 1612.585 1517.586 1500.985 1322.468 1482.757 1569.203 1608.102 1623.215 -9999 -9999 -9999 -9999 -9999 -9999 -9999 -9999 -9999 -9999 -9999 -9999 -9999 -9999 -9999 -9999 -9999 -9999 -9999 -9999 -9999 -9999 -9999 -9999 -9999 -9999 -9999 -9999 -9999 -9999 -9999 -9999 -9999 -9999 -9999 -9999 -9999 -9999 -9999 -9999 -9999 -9999 -9999 -9999 -9999 -9999 -9999 -9999 -9999 -9999 -9999 -9999 -9999 -9999 -9999 -9999 -9999 -9999 -9999 -9999 -9999 -9999 -9999 -9999 -9999 -9999 -9999 -9999
-9999 -9999 -9999 -9999 -9999 -9999 -9999 -9999 -9999 -9999 -9999 -9999 -9999 -9999 -9999 -9999 -9999 -9999 -9999 -9999 -9999 -9999 -9999 -9999 -9999 -9999 -9999 -9999 -9999 -9999 -9999 -9999 -9999 -9999 -9999 -9999 -9999 -9999 -9999 -9999 -9999 -9999 -9999 -9999 -9999 -9999 -9999 -9999 -9999 -9999 -9999 -9999 -9999 -9999 -9999 -9999 -9999 -9999 -9999 -9999 -9999 -9999 -9999 -9999 -9999 -9999 -9999 -9999 -9999 -9999 -9999 -9999 -9999 -9999 -9999 -9999 -9999 185.0737 217.4862 405.666 617.0569 671.3757 729.6589 816.8723 570.1572 698.8391 843.9304 778.9272 765.508 797.8259 792.449 753.1499 577.0453 610.7998 676.2961 798.1172 815.6693 824.1517 835.8007 736.7856 725.0993 808.3184 720.5376 626.8132 614.3967 567.7971 647.2827 584.5602 424.4961 566.8622 403.7388 403.896 423.3817 466.0334 440.0891 484.2697 470.6931 396.7006 468.8366 514.9683 554.8953 654.4509 630.0278 414.4154 432.3042 279.0101 311.8013 429.8314 573.6604 540.8591 513.4666 417.1813 385.442 457.33 346.4539 334.2302 433.7852 510.1528 745.1871 532.3517 451.0124 241.7347 200.9724 144.284 237.4962 261.3164 240.9184 235.3475 225.0807 156.2094 141.7993 119.0493 91.98262 79.25818 70.38345 60.53339 49.53921 42.20021 37.11019 31.97441 26.19395 22.55437 19.34396 15.96821 12.80484 11.35109 10.44672 9.936 9.932576 11.12702 12.33157 11.41804 11.59027 13.07608 13.83506 12.85036 11.423 11.423 11.48034 11.423 11.423 11.423 11.423 11.423 11.42347 11.423 12.37589 12.95284 13.47395 14.407 14.30331 15.0129 15.60521 14.46282 15.51696 16.6578 17.60929 17.59005 17.51353 19.01208 19.48601 20.49708 22.60139 21.74246 21.85185 24.54558 24.03859 24.7011 25.09053 26.98015 28.83519 29.81343 32.08424 34.66599 53.57497 60.48239 69.62158 108.5069 108.4172 123.8627 124.7334 216.6558 199.8482 321.104 238.5754 270.4164 291.4415 337.7812 407.0479 423.1853 502.8886 472.7594 432.0921 420.3031 481.0807 487.4366 503.1813 589.8852 601.0701 648.8521 730.5436 763.3861 777.2725 794.9245 807.0717 828.1566 811.3295 843.9398 828.9894 839.4333 845.8124 1016.354 1051.153 1074.334 1090.822 1121.515 1018.145 1074.195 947.9714 958.3514 949.0178 1149.68 1215.431 1289.859 1339.648 1384.09 1301.749 1439.102 1346.167 1352.558 1421.512 1437.286 1503.927 1518.161 1411.959 1376.8 1391.996 1401.99 1538.268 1568.971 1611.962 1767.397 1725.167 -9999 -9999 -9999 -9999 -9999 -9999 -9999 -9999 -9999 -9999 -9999 -9999 -9999 -9999 -9999 -9999 -9999 -9999 -9999 -9999 -9999 -9999 -9999 -9999 -9999 -9999 -9999 -9999 -9999 -9999 -9999 -9999 -9999 -9999 -9999 -9999 -9999 -9999 -9999 -9999 -9999 -9999 -9999 -9999 -9999 -9999 -9999 -9999 -9999 -9999 -9999 -9999 -9999 -9999 -9999 -9999 -9999 -9999 -9999 -9999 -9999 -9999 -9999 -9999 -9999 -9999 -9999 -9999
-9999 -9999 -9999 -9999 -9999 -9999 -9999 -9999 -9999 -9999 -9999 -9999 -9999 -9999 -9999 -9999 -9999 -9999 -9999 -9999 -9999 -9999 -9999 -9999 -9999 -9999 -9999 -9999 -9999 -9999 -9999 -9999 -9999 -9999 -9999 -9999 -9999 -9999 -9999 -9999 -9999 -9999 -9999 -9999 -9999 -9999 -9999 -9999 -9999 -9999 -9999 -9999 -9999 -9999 -9999 -9999 -9999 -9999 -9999 -9999 -9999 -9999 -9999 -9999 -9999 -9999 -9999 -9999 -9999 -9999 -9999 -9999 -9999 -9999 -9999 -9999 -9999 177.401 155.2569 451.7753 625.0815 632.5927 693.9516 852.7419 707.558 585.913 820.9113 798.4388 691.8111 721.8767 894.4599 888.5376 673.0527 590.7945 598.3681 635.2099 816.1508 893.8276 881.1907 859.6826 780.2471 734.1199 832.1436 647.5944 601.9476 648.5981 662.4996 691.9705 639.09 493.8993 403.9483 404.6364 404.9936 442.5823 413.434 438.3578 404.3752 408.057 519.3335 613.5014 639.0092 768.741 644.6345 579.0771 578.3936 387.4638 365.7297 355.4255 502.8214 502.5395 621.8712 500.4736 426.5903 386.409 403.0711 328.598 411.0219 575.1927 635.7775 514.6533 512.1077 269.5491 174.2902 225.5383 296.6421 232.7854 240.4406 199.9517 205.1655 159.2973 124.7171 107.2114 95.37218 82.73125 69.80276 60.62827 52.56944 46.2746 39.37487 33.13363 30.49271 24.40978 19.83013 15.47914 11.76298 11.04444 9.94777 9.936 9.977471 12.85419 11.51953 10.04166 10.27714 12.67005 14.17678 12.49274 11.81188 11.81537 11.423 11.423 11.1227 11.223 10.49023 11.33972 11.38197 11.423 12.07579 12.71247 12.93596 13.70512 14.22593 14.90401 15.28401 15.907 16.107 16.41539 16.18943 16.5948 18.33738 18.87345 20.15153 20.59911 20.732 22.06653 22.25421 22.18267 23.5613 26.11209 25.66096 26.52488 27.12399 36.60278 38.4029 52.72287 47.06791 67.11401 77.18654 72.28205 87.99255 111.8931 136.1596 189.4039 188.9505 293.5966 318.0696 266.3 368.8716 361.0071 403.5159 476.5292 565.6142 463.1158 454.304 418.3707 433.6198 435.0465 503.2883 588.6086 599.6278 732.8787 682.841 738.5156 765.9704 793.4369 802.1149 804.8463 793.7587 859.0435 926.9412 967.2302 997.0676 1004.875 1166.127 1085.776 1053.132 1085.892 958.21 933.219 906.4334 1032.575 1132.277 1201.562 1254.867 1322.897 1335.347 1247.346 1185.222 1269.99 1193.998 1229.063 1409.233 1425.643 1253.444 1292.002 1437.26 1478.626 1611.19 1582.532 1593.596 1602.719 1656.538 1704.421 1739.1 -9999 -9999 -9999 -9999 -9999 -9999 -9999 -9999 -9999 -9999 -9999 -9999 -9999 -9999 -9999 -9999 -9999 -9999 -9999 -9999 -9999 -9999 -9999 -9999 -9999 -9999 -9999 -9999 -9999 -9999 -9999 -9999 -9999 -9999 -9999 -9999 -9999 -9999 -9999 -9999 -9999 -9999 -9999 -9999 -9999 -9999 -9999 -9999 -9999 -9999 -9999 -9999 -9999 -9999 -9999 -9999 -9999 -9999 -9999 -9999 -9999 -9999 -9999 -9999 -9999 -9999 -9999 -9999
-9999 -9999 -9999 -9999 -9999 -9999 -9999 -9999 -9999 -9999 -9999 -9999 -9999 -9999 -9999 -9999 -9999 -9999 -9999 -9999 -9999 -9999 -9999 -9999 -9999 -9999 -9999 -9999 -9999 -9999 -9999 -9999 -9999 -9999 -9999 -9999 -9999 -9999 -9999 -9999 -9999 -9999 -9999 -9999 -9999 -9999 -9999 -9999 -9999 -9999 -9999 -9999 -9999 -9999 -9999 -9999 -9999 -9999 -9999 -9999 -9999 -9999 -9999 -9999 -9999 -9999 -9999 -9999 -9999 -9999 -9999 -9999 -9999 -9999 -9999 -9999 -9999 262.1293 157.2778 335.8237 504.8957 576.0901 659.1348 735.1479 736.1717 715.3076 802.9862 819.0272 826.6621 863.4878 838.4211 986.3488 879.4041 836.2458 709.6726 762.2599 730.7894 842.5214 849.2875 876.8625 1000.497 969.2227 889.0577 804.993 737.4304 664.6962 659.2484 619.9308 552.244 542.8394 475.9241 450.5874 412.1603 418.0757 405.6247 471.9676 440.3735 640.5337 481.5667 574.106 798.1686 787.1097 629.77 715.3594 700.2466 512.8493 374.5403 524.8549 387.9498 474.6681 611.5752 502.7484 487.0172 481.9458 400.8376 380.0829 421.0848 629.5766 573.7026 437.8343 273.7412 235.2172 198.0023 205.6582 207.4141 208.4368 168.1481 168.7304 208.3227 202.3271 177.0723 134.4296 111.1211 84.461 74.11154 61.97664 54.68887 48.60553 42.09283 36.73078 31.66663 25.58565 18.91347 15.37433 12.44741 11.58942 9.936 9.931178 11.43521 10.93425 11.43679 9.836 9.846081 11.94738 12.10863 11.00333 11.5594 12.89224 12.22336 11.423 10.82152 11.323 10.92325 11.12747 11.01202 11.11835 11.49206 12.50654 12.907 13.08459 14.05947 14.507 15.09613 15.40742 15.807 14.86427 16.92902 16.25008 19.12741 16.06198 18.89054 20.05795 20.55441 21.32838 21.49283 22.05855 22.38443 25.25219 26.89685 25.92878 27.98763 35.05108 33.0733 49.07971 45.37032 54.32529 61.58199 60.75844 80.62792 153.8992 124.3421 160.9108 180.4555 340.4663 271.2886 248.7834 357.8003 373.3922 376.9619 469.8976 569.5721 463.3711 454.1734 427.9136 433.4059 462.7142 587.2043 578.9598 635.0993 703.494 714.5962 732.8593 760.9262 769.2394 755.1906 761.8907 800.7834 807.7845 906.934 959.97 990.6846 1014.387 1017.538 936.7651 1075.839 992.7623 887.4624 921.1757 936.2452 1095.769 1218.472 1221.933 1288.035 1237.897 1156.865 1022.175 1179.083 1141.315 1271.051 1311.088 1230.531 1253.362 1428.348 1507.278 1632.692 1635.463 1560.522 1686.78 1671.536 1653.352 1678.444 1732.401 1758.484 -9999 -9999 -9999 -9999 -9999 -9999 -9999 -9999 -9999 -9999 -9999 -9999 -9999 -9999 -9999 -9999 -9999 -9999 -9999 -9999 -9999 -9999 -9999 -9999 -9999 -9999 -9999 -9999 -9999 -9999 -9999 -9999 -9999 -9999 -9999 -9999 -9999 -9999 -9999 -9999 -9999 -9999 -9999 -9999 -9999 -9999 -9999 -9999 -9999 -9999 -9999 -9999 -9999 -9999 -9999 -9999 -9999 -9999 -9999 -9999 -9999 -9999 -9999 -9999 -9999 -9999 -9999 -9999
-9999 -9999 -9999 -9999 -9999 -9999 -9999 -9999 -9999 -9999 -9999 -9999 -9999 -9999 -9999 -9999 -9999 -9999 -9999 -9999 -9999 -9999 -9999 -9999 -9999 -9999 -9999 -9999 -9999 -9999 -9999 -9999 -9999 -9999 -9999 -9999 -9999 -9999 -9999 -9999 -9999 -9999 -9999 -9999 -9999 -9999 -9999 -9999 -9999 -9999 -9999 -9999 -9999 -9999 -9999 -9999 -9999 -9999 -9999 -9999 -9999 -9999 -9999 -9999 -9999 -9999 -9999 -9999 -9999 -9999 -9999 -9999 -9999 -9999 -9999 -9999 -9999 101.5151 98.60985 257.5886 357.8259 507.8088 594.8671 597.374 588.8957 600.3494 615.8513 807.9539 726.9604 966.142 881.8336 941.0002 1036.811 954.6939 853.9667 730.0858 691.7858 858.3625 883.4864 907.1638 990.6251 1061.663 793.321 862.9338 787.8906 717.6115 660.3444 553.9277 615.34 530.2336 453.0476 426.7318 421.142 420.6919 411.0765 481.1252 439.4928 656.7719 700.9161 588.8499 687.8337 820.4262 672.1895 786.1931 722.5551 610.7951 439.9624 269.6709 313.1633 332.6493 489.2086 464.0297 433.5286 516.7969 460.7667 271.9581 502.0634 795.7023 511.9309 529.6594 330.0852 249.6761 190.4416 237.6132 192.7385 246.0001 251.2869 228.8159 194.126 197.373 188.5514 144.9501 115.118 93.54456 78.34367 67.90396 57.09368 49.47015 45.9167 40.90402 34.72376 25.59567 20.20012 15.37393 11.90486 10.18266 11.34851 10.1848 9.832403 8.544522 10.26298 10.53979 11.22179 11.436 11.4374 12.7275 11.68163 12.31423 12.62709 11.3229 10.72665 9.917073 10.20361 11.27669 10.82049 10.04326 11.3982 12.05624 12.507 13.0086 13.60298 14.41565 15.26068 15.31162 16.007 14.76461 17.10176 15.8903 17.15052 17.33896 18.97635 20.43873 20.64363 20.48837 21.23364 23.52994 23.26719 23.86219 25.1006 26.4776 26.72935 27.73444 40.16977 44.01737 41.64635 50.96682 52.86105 90.31042 113.0513 148.5494 153.0352 141.1569 178.4109 313.4234 272.1328 301.5655 350.2137 316.3462 393.5784 480.4604 531.8445 545.5959 475.5251 480.6654 489.2938 462.6326 482.0358 585.7519 662.9249 691.9465 714.6109 724.7072 743.931 740.9297 762.2173 794.8227 817.0338 885.2998 931.3915 941.5956 942.9017 852.784 872.3696 923.1976 973.1464 912.1865 856.5386 871.2781 930.0745 1042.063 1051.522 1233.032 1235.985 1073.844 971.4716 1187.939 1207.948 1280.499 1238.214 1122.743 1293.906 1468.737 1557.363 1603.213 1602.755 1501.008 1508.586 1616.808 1602.017 1615.391 1769.49 1835.494 1778.487 -9999 -9999 -9999 -9999 -9999 -9999 -9999 -9999 -9999 -9999 -9999 -9999 -9999 -9999 -9999 -9999 -9999 -9999 -9999 -9999 -9999 -9999 -9999 -9999 -9999 -9999 -9999 -9999 -9999 -9999 -9999 -9999 -9999 -9999 -9999 -9999 -9999 -9999 -9999 -9999 -9999 -9999 -9999 -9999 -9999 -9999 -9999 -9999 -9999 -9999 -9999 -9999 -9999 -9999 -9999 -9999 -9999 -9999 -9999 -9999 -9999 -9999 -9999 -9999 -9999 -9999 -9999 -9999
-9999 -9999 -9999 -9999 -9999 -9999 -9999 -9999 -9999 -9999 -9999 -9999 -9999 -9999 -9999 -9999 -9999 -9999 -9999 -9999 -9999 -9999 -9999 -9999 -9999 -9999 -9999 -9999 -9999 -9999 -9999 -9999 -9999 -9999 -9999 -9999 -9999 -9999 -9999 -9999 -9999 -9999 -9999 -9999 -9999 -9999 -9999 -9999 -9999 -9999 -9999 -9999 -9999 -9999 -9999 -9999 -9999 -9999 -9999 -9999 -9999 -9999 -9999 -9999 -9999 -9999 -9999 -9999 -9999 -9999 -9999 -9999 -9999 -9999 -9999 -9999 -9999 104.5093 96.1527 200.6163 392.6987 501.4077 461.2869 557.7629 458.1111 385.1149 507.262 680.1057 607.3472 688.0576 829.0358 738.3416 915.3605 842.011 937.2243 752.9656 724.4271 726.4219 747.2968 925.4637 923.6678 944.5151 788.9608 847.849 829.2126 720.9058 726.0108 544.9313 535.7825 536.8035 497.01 441.2775 427.2723 440.0641 430.4275 465.2417 543.3432 573.4728 663.8467 706.4144 795.9815 823.2407 729.1215 877.0396 781.7 727.4711 678.9941 476.5465 441.1603 256.9795 310.0386 424.3429 411.943 397.9317 246.2624 383.5955 533.698 712.8254 519.4315 508.1229 296.8321 226.7322 219.6854 212.4169 238.9569 284.8685 295.5035 259.9782 237.5627 224.4287 194.1234 157.3544 120.5631 98.51466 82.09815 68.75928 60.45507 55.99125 51.15862 44.09828 36.22103 27.75539 20.86285 14.8737 11.07754 9.852115 9.73053 9.904809 9.122343 9.307489 9.640393 9.836 11.29766 11.436 11.4849 11.81726 11.4466 10.73691 12.68091 11.39373 10.21667 10.02038 10.23204 10.12297 10.57135 9.894746 11.47217 11.91586 12.50597 12.907 13.52019 14.54135 14.51348 15.02917 15.79802 16.02416 16.44477 15.893 14.92066 18.18083 18.99563 19.76264 20.49978 20.45013 21.26833 21.90816 21.33887 23.91161 24.67607 26.35553 29.31215 28.80757 40.67643 44.85115 40.08322 43.94369 53.83112 86.68427 98.14816 155.2044 135.3144 142.1423 198.8127 250.7914 222.8334 329.2185 270.4816 354.197 326.7875 447.6083 548.1985 468.9847 462.9469 510.6214 494.407 464.1212 473.6861 624.8576 645.5192 673.9565 700.3704 731.0949 745.7658 738.0143 788.6451 825.9532 883.197 870.0217 862.4522 889.9036 811.5684 794.9283 927.7708 955.4634 935.3762 878.6469 761.7728 868.7053 937.4902 1090.284 1203.354 1198.947 1141.645 943.9034 1101.296 1267.227 1187.703 1001.446 1174.316 1325.906 1403.788 1481.817 1546.073 1494.525 1525.738 1610.047 1585.452 1494.138 1573.203 1688.696 1859.644 2030.364 1961.007 -9999 -9999 -9999 -9999 -9999 -9999 -9999 -9999 -9999 -9999 -9999 -9999 -9999 -9999 -9999 -9999 -9999 -9999 -9999 -9999 -9999 -9999 -9999 -9999 -9999 -9999 -9999 -9999 -9999 -9999 -9999 -9999 -9999 -9999 -9999 -9999 -9999 -9999 -9999 -9999 -9999 -9999 -9999 -9999 -9999 -9999 -9999 -9999 -9999 -9999 -9999 -9999 -9999 -9999 -9999 -9999 -9999 -9999 -9999 -9999 -9999 -9999 -9999 -9999 -9999 -9999 -9999 -9999
-9999 -9999 -9999 -9999 -9999 -9999 -9999 -9999 -9999 -9999 -9999 -9999 -9999 -9999 -9999 -9999 -9999 -9999 -9999 -9999 -9999 -9999 -9999 -9999 -9999 -9999 -9999 -9999 -9999 -9999 -9999 -9999 -9999 -9999 -9999 -9999 -9999 -9999 -9999 -9999 -9999 -9999 -9999 -9999 -9999 -9999 -9999 -9999 -9999 -9999 -9999 -9999 -9999 -9999 -9999 -9999 -9999 -9999 -9999 -9999 -9999 -9999 -9999 -9999 -9999 -9999 -9999 -9999 -9999 -9999 -9999 -9999 -9999 -9999 -9999 -9999 -9999 109.6495 92.84745 236.4092 140.445 308.0778 227.0692 307.6822 521.8371 374.5652 335.6071 465.103 629.8294 455.1637 619.1257 583.9952 639.756 859.4482 942.9279 834.308 858.9923 687.3401 749.0981 775.9787 858.4127 896.9755 855.3372 1092.122 933.2921 686.0314 627.7208 602.3549 643.9908 587.453 487.59 503.142 420.7072 426.8578 472.4675 437.7004 536.9407 553.4994 542.8607 715.9274 824.8375 800.7941 726.667 809.1445 822.9762 835.4367 830.658 564.8788 359.8652 447.1446 360.8348 236.6113 513.7023 393.5382 235.7602 433.0558 567.6494 673.3624 570.2562 539.9659 240.5669 243.9417 245.5593 273.4016 250.2827 330.4259 328.0955 307.3012 216.7572 219.8224 198.4276 143.8228 124.7919 108.8983 88.21996 74.88319 66.29021 61.33254 54.65213 47.27519 37.78911 29.41596 22.42982 16.36606 11.10353 8.788498 9.045628 9.323552 8.335999 9.837995 9.387488 9.834991 9.614162 8.803616 10.31936 11.81577 11.85432 10.5144 12.24743 11.2277 10.19978 10.30054 9.819733 9.822705 10.10647 10.0128 10.91772 11.507 12.12096 12.90592 13.50824 14.11004 14.30513 14.82075 14.95777 15.84756 15.1049 13.293 15.78199 18.51657 18.72833 20.50453 21.63043 20.77892 20.27781 21.67914 22.34094 23.4614 24.17639 23.90347 31.00718 29.01482 32.16674 37.95029 35.99961 40.65684 47.68232 71.27852 95.84916 152.2883 138.1498 115.579 156.9541 191.6421 224.4736 206.8704 238.0277 310.1555 354.46 407.787 470.2357 442.4708 515.5602 557.5089 527.0568 537.1469 506.2737 558.7247 688.7344 656.7335 663.6636 714.6183 716.6315 698.6177 838.4949 830.1786 879.0775 858.7329 833.3289 818.6566 794.3969 784.8491 829.5499 919.1337 862.6411 821.0653 820.4787 920.4246 1079.189 1043.912 1048.686 1165.244 891.6786 1052.334 1148.453 1057.583 1098.184 1305.245 1403.526 1447.873 1427.469 1525.349 1418.943 1496.925 1384.209 1575.552 1444.87 1490.555 1663.438 1724.038 1968.685 1947.866 2029.169 -9999 -9999 -9999 -9999 -9999 -9999 -9999 -9999 -9999 -9999 -9999 -9999 -9999 -9999 -9999 -9999 -9999 -9999 -9999 -9999 -9999 -9999 -9999 -9999 -9999 -9999 -9999 -9999 -9999 -9999 -9999 -9999 -9999 -9999 -9999 -9999 -9999 -9999 -9999 -9999 -9999 -9999 -9999 -9999 -9999 -9999 -9999 -9999 -9999 -9999 -9999 -9999 -9999 -9999 -9999 -9999 -9999 -9999 -9999 -9999 -9999 -9999 -9999 -9999 -9999 -9999 -9999 -9999
-9999 -9999 -9999 -9999 -9999 -9999 -9999 -9999 -9999 -9999 -9999 -9999 -9999 -9999 -9999 -9999 -9999 -9999 -9999 -9999 -9999 -9999 -9999 -9999 -9999 -9999 -9999 -9999 -9999 -9999 -9999 -9999 -9999 -9999 -9999 -9999 -9999 -9999 -9999 -9999 -9999 -9999 -9999 -9999 -9999 -9999 -9999 -9999 -9999 -9999 -9999 -9999 -9999 -9999 -9999 -9999 -9999 -9999 -9999 -9999 -9999 -9999 -9999 -9999 -9999 -9999 -9999 -9999 -9999 -9999 -9999 -9999 -9999 -9999 -9999 -9999 -9999 98.31285 90.57516 143.3124 399.7685 287.5356 247.9173 203.3056 370.6255 323.7345 459.4313 280.2709 438.8845 321.5137 550.5414 593.6785 639.629 807.528 1007.746 852.4052 769.496 747.5114 704.5653 757.5495 856.3731 949.2455 881.7031 1000.633 889.4017 785.6808 698.0409 665.2783 712.101 634.7575 485.986 435.4948 430.9454 428.2462 491.2647 557.3347 504.6594 491.438 486.7361 638.376 823.9992 771.6107 731.3638 770.9308 823.5863 884.4698 761.5563 711.8386 530.59 500.0263 517.8729 252.6515 314.8834 487.3879 310.3804 446.2684 740.5399 661.0888 622.2833 507.8669 254.3475 267.1982 259.5458 281.7668 305.3886 312.8387 280.5707 267.8791 260.5412 232.1312 192.658 164.9097 135.6179 116.2516 95.59052 82.01774 71.58978 65.57153 57.38967 49.16324 40.91695 30.72713 24.77067 18.34359 11.74915 8.473097 8.335999 8.536 8.338874 8.742322 8.777675 9.829444 9.92994 9.768219 9.575402 10.85648 10.89659 12.67207 12.53355 11.90619 10.38736 9.920741 9.591895 9.657476 9.933382 9.92245 10.60349 11.407 11.407 12.41695 13.00301 14.30232 14.20818 14.71185 14.61601 15.59626 15.38127 15.2266 16.7767 17.7894 17.91581 18.95058 20.49359 20.49515 19.66764 19.12713 21.51539 22.1756 22.10287 24.01379 28.97578 29.47015 33.49691 34.28465 36.89698 39.8494 45.70998 63.15041 100.1492 115.9866 150.3029 96.05637 137.7466 134.1588 157.5805 233.2126 182.6837 220.7226 341.5577 403.985 446.8743 423.3989 438.6791 499.5374 522.3876 537.2986 602.4202 664.8161 691.6263 675.1089 663.0795 700.7537 722.1948 731.8491 850.9352 856.999 787.2171 859.6579 822.0788 782.4595 781.1056 739.9096 758.6616 792.0884 772.9976 827.6602 867.1976 880.8581 1020.743 923.1459 936.6556 882.0991 1008.396 932.1776 1113.359 1234.676 1379.428 1368.776 1381.389 1446.02 1485.703 1359.085 1471.511 1458.007 1491.405 1439.173 1568.662 1499.624 1664.054 1680.952 1715.143 1836.234 2026.362 -9999 -9999 -9999 -9999 -9999 -9999 -9999 -9999 -9999 -9999 -9999 -9999 -9999 -9999 -9999 -9999 -9999 -9999 -9999 -9999 -9999 -9999 -9999 -9999 -9999 -9999 -9999 -9999 -9999 -9999 -9999 -9999 -9999 -9999 -9999 -9999 -9999 -9999 -9999 -9999 -9999 -9999 -9999 -9999 -9999 -9999 -9999 -9999 -9999 -9999 -9999 -9999 -9999 -9999 -9999 -9999 -9999 -9999 -9999 -9999 -9999 -9999 -9999 -9999 -9999 -9999 -9999 -9999
-9999 -9999 -9999 -9999 -9999 -9999 -9999 -9999 -9999 -9999 -9999 -9999 -9999 -9999 -9999 -9999 -9999 -9999 -9999 -9999 -9999 -9999 -9999 -9999 -9999 -9999 -9999 -9999 -9999 -9999 -9999 -9999 -9999 -9999 -9999 -9999 -9999 -9999 -9999 -9999 -9999 -9999 -9999 -9999 -9999 -9999 -9999 -9999 -9999 -9999 -9999 -9999 -9999 -9999 -9999 -9999 -9999 -9999 -9999 -9999 -9999 -9999 -9999 -9999 -9999 -9999 -9999 -9999 -9999 -9999 -9999 -9999 -9999 -9999 -9999 -9999 -9999 87.71707 87.84691 226.1865 410.2602 424.8763 463.73 357.4847 208.2149 376.4878 646.2589 543.1284 422.6112 351.3259 680.7167 818.5994 640.6744 651.7817 845.2644 936.342 868.6622 789.7557 740.9487 738.7233 887.5698 880.3933 835.7585 884.3061 864.0712 765.2397 644.0319 708.4932 664.5568 596.4651 462.0898 439.8069 428.8778 430.9374 470.4749 510.1788 518.7115 423.2155 565.5132 688.3338 720.1617 773.0509 711.4853 811.8753 774.9438 791.3958 861.8293 809.3862 589.2977 448.5548 444.4142 389.6313 267.23 376.1641 336.3984 464.1634 756.7954 670.9185 534.1334 496.323 337.6683 289.8146 268.1312 307.8753 305.2502 324.0018 291.7931 228.5995 306.7384 221.423 188.3304 171.821 132.4397 115.9451 100.1389 84.64108 76.92065 66.19591 55.86243 46.38196 38.42987 32.14868 24.01565 17.08024 12.00177 9.106895 8.338654 8.335844 8.335997 8.335999 8.335999 9.18668 8.809476 9.294307 9.624403 10.31953 11.44044 11.69224 11.88873 11.52067 10.75894 9.655723 9.231994 9.292488 9.422739 9.99845 10.36872 11.20629 11.63929 12.40003 13.00204 13.63278 14.407 12.88116 15.0442 15.38935 15.89013 15.8626 16.59493 17.19407 17.61454 18.99262 19.21038 20.15016 20.25394 19.03534 18.97174 22.51921 22.56916 23.77556 25.28004 31.00098 35.27705 32.84081 36.68321 38.13086 44.08945 52.92449 85.87694 105.767 141.851 92.73833 129.8373 149.0667 167.6769 169.5484 249.7068 390.4167 383.3815 395.865 419.8939 405.9208 435.3574 500.9185 525.2456 536.5648 574.8835 649.6996 685.5253 630.9559 660.7363 659.9838 691.1168 754.3403 851.9267 842.9278 728.5492 788.4924 830.2188 827.42 834.1556 757.5574 745.5073 710.909 877.7318 874.9238 851.8487 884.6766 966.5425 943.7582 891.9077 822.9603 1012.598 1124.451 1281.903 1253.933 1354.83 1295.405 1375.708 1353.592 1306.511 1266.091 1359.285 1358.569 1363.438 1541.09 1395.739 1431.273 1515.33 1555.8 1645.707 1883.191 2030.382 -9999 -9999 -9999 -9999 -9999 -9999 -9999 -9999 -9999 -9999 -9999 -9999 -9999 -9999 -9999 -9999 -9999 -9999 -9999 -9999 -9999 -9999 -9999 -9999 -9999 -9999 -9999 -9999 -9999 -9999 -9999 -9999 -9999 -9999 -9999 -9999 -9999 -9999 -9999 -9999 -9999 -9999 -9999 -9999 -9999 -9999 -9999 -9999 -9999 -9999 -9999 -9999 -9999 -9999 -9999 -9999 -9999 -9999 -9999 -9999 -9999 -9999 -9999 -9999 -9999 -9999 -9999 -9999
-9999 -9999 -9999 -9999 -9999 -9999 -9999 -9999 -9999 -9999 -9999 -9999 -9999 -9999 -9999 -9999 -9999 -9999 -9999 -9999 -9999 -9999 -9999 -9999 -9999 -9999 -9999 -9999 -9999 -9999 -9999 -9999 -9999 -9999 -9999 -9999 -9999 -9999 -9999 -9999 -9999 -9999 -9999 -9999 -9999 -9999 -9999 -9999 -9999 -9999 -9999 -9999 -9999 -9999 -9999 -9999 -9999 -9999 -9999 -9999 -9999 -9999 -9999 -9999 -9999 -9999 -9999 -9999 -9999 -9999 -9999 -9999 -9999 -9999 -9999 -9999 -9999 107.1519 85.83492 176.8374 374.3425 527.2003 574.1519 449.2596 246.9467 452.7518 446.3517 658.8885 634.6648 363.8691 529.7892 751.1579 811.3323 763.1034 715.4952 932.3799 869.8456 865.2917 798.6636 725.7433 815.0136 922.8586 927.0412 701.0162 592.2673 567.7464 560.8655 668.9921 563.6798 501.7334 491.566 502.5392 460.5839 650.7472 492.0929 531.9492 460.8343 461.6755 504.6811 563.6874 652.6613 712.7525 747.1479 731.8187 744.911 739.1525 818.3851 830.8478 788.5098 587.0118 365.0331 590.4044 357.5368 222.5149 316.1062 196.0905 541.9346 654.6518 671.3475 448.4123 312.1823 325.9435 309.6821 317.5318 329.8847 326.7124 318.4373 274.2367 297.883 237.8687 208.7141 170.4629 129.599 109.9962 98.78562 89.38825 79.5621 68.86442 58.7336 49.51111 37.20448 30.37674 21.57027 16.59565 12.06423 9.525619 8.359712 8.359673 8.347549 8.347581 8.341325 8.334862 8.335993 8.743251 9.997872 9.321337 10.09835 11.23725 11.70106 11.4207 11.40637 9.820457 8.723001 9.288874 9.195455 9.536988 9.880799 11.08436 11.64152 12.40047 12.807 13.52622 11.80173 14.18347 14.82215 15.16001 12.80353 15.89183 15.893 16.90151 17.71311 18.86443 19.38773 16.06032 19.09665 19.82186 21.76756 22.08265 23.40541 24.96313 25.31596 27.01118 34.00012 31.90328 36.25993 36.83664 49.50421 59.75024 62.28299 79.39391 131.1175 85.58499 123.2181 139.5786 149.7366 169.9988 298.5996 339.201 330.045 402.642 391.2578 388.7291 404.0423 448.6699 508.0198 544.752 530.9313 589.1808 620.4865 663.4527 626.912 668.071 635.022 779.8236 785.7773 760.7303 710.1201 803.5527 870.5524 831.1041 899.0468 767.8017 682.7104 794.6788 863.1516 817.0757 864.1164 748.4215 929.3519 822.277 933.7168 986.3488 1022.524 1096.643 1152.902 1276.342 1250.833 1381.715 1252.332 1144.714 1111.281 1323.623 1400.072 1117.855 1255.291 1473.728 1566.872 1621.526 1510.495 1597.153 1642.967 1761.22 1908.8 -9999 -9999 -9999 -9999 -9999 -9999 -9999 -9999 -9999 -9999 -9999 -9999 -9999 -9999 -9999 -9999 -9999 -9999 -9999 -9999 -9999 -9999 -9999 -9999 -9999 -9999 -9999 -9999 -9999 -9999 -9999 -9999 -9999 -9999 -9999 -9999 -9999 -9999 -9999 -9999 -9999 -9999 -9999 -9999 -9999 -9999 -9999 -9999 -9999 -9999 -9999 -9999 -9999 -9999 -9999 -9999 -9999 -9999 -9999 -9999 -9999 -9999 -9999 -9999 -9999 -9999 -9999 -9999
-9999 -9999 -9999 -9999 -9999 -9999 -9999 -9999 -9999 -9999 -9999 -9999 -9999 -9999 -9999 -9999 -9999 -9999 -9999 -9999 -9999 -9999 -9999 -9999 -9999 -9999 -9999 -9999 -9999 -9999 -9999 -9999 -9999 -9999 -9999 -9999 -9999 -9999 -9999 -9999 -9999 -9999 -9999 -9999 -9999 -9999 -9999 -9999 -9999 -9999 -9999 -9999 -9999 -9999 -9999 -9999 -9999 -9999 -9999 -9999 -9999 -9999 -9999 -9999 -9999 -9999 -9999 -9999 -9999 -9999 -9999 -9999 -9999 -9999 -9999 -9999 -9999 129.4855 83.35719 152.6315 331.7799 390.2098 455.1641 410.7059 330.5187 362.9294 613.6326 363.0236 621.0082 543.5956 354.2165 486.6008 726.3278 889.7604 829.4872 914.225 1030.385 860.2314 868.2384 814.053 751.8331 915.5457 1038.86 886.8969 733.8566 609.0272 507.5816 642.3632 505.4818 484.1063 509.091 611.7034 534.5642 532.7814 540.7157 511.12 461.9821 369.1202 400.1211 582.8193 700.2891 788.5636 745.9739 766.0402 729.5507 774.662 795.152 770.2543 840.6065 543.9811 355.0916 500.4637 579.3351 497.6988 429.652 186.6613 437.5498 672.4207 605.3864 544.4153 410.1465 313.1803 359.914 333.5189 351.356 317.7072 329.7819 302.4149 270.082 253.0952 188.2337 179.1075 158.3331 122.3211 105.9459 95.13877 82.71884 72.24683 61.81429 50.85558 44.56753 30.55917 21.78749 15.16813 11.76079 9.947968 8.757228 8.367 8.367 8.3654 8.358836 8.483262 9.146471 8.990001 8.727732 9.245496 11.34515 10.35102 11.41804 11.28412 10.06537 9.823 9.816779 8.67005 8.39738 9.815892 10.10398 10.907 11.46296 12.19899 12.84367 13.64373 13.81197 14.4076 14.40722 15.20506 15.41275 14.63327 15.31435 16.74749 18.4412 17.62573 15.59367 15.9809 19.18874 20.65306 20.32351 22.15513 24.9349 26.27861 25.51997 30.06595 32.97212 28.36465 34.68584 52.05421 56.98687 46.79762 69.71928 93.47876 94.40578 83.09718 109.8522 119.0269 111.8261 156.0816 219.6702 273.4328 324.02 386.2582 312.0002 479.4631 466.8305 441.2768 488.5488 529.8136 519.1125 576.8798 611.8529 681.1029 571.4875 672.8769 693.8545 754.8933 714.8849 714.2378 728.1841 745.1534 752.0739 771.2489 739.0767 755.4534 704.6105 808.4052 815.9962 825.2661 724.9544 854.6382 883.056 926.551 943.0426 1075.029 1118.856 1108.647 1162.933 1196.191 1300.556 1253.656 1155.797 802.592 1246.079 1152.634 938.6534 1247.216 1273.789 1398.943 1573.627 1671.508 1657.958 1544.515 1732.238 1966.406 2017.097 -9999 -9999 -9999 -9999 -9999 -9999 -9999 -9999 -9999 -9999 -9999 -9999 -9999 -9999 -9999 -9999 -9999 -9999 -9999 -9999 -9999 -9999 -9999 -9999 -9999 -9999 -9999 -9999 -9999 -9999 -9999 -9999 -9999 -9999 -9999 -9999 -9999 -9999 -9999 -9999 -9999 -9999 -9999 -9999 -9999 -9999 -9999 -9999 -9999 -9999 -9999 -9999 -9999 -9999 -9999 -9999 -9999 -9999 -9999 -9999 -9999 -9999 -9999 -9999 -9999 -9999 -9999 -9999
-9999 -9999 -9999 -9999 -9999 -9999 -9999 -9999 -9999 -9999 -9999 -9999 -9999 -9999 -9999 -9999 -9999 -9999 -9999 -9999 -9999 -9999 -9999 -9999 -9999 -9999 -9999 -9999 -9999 -9999 -9999 -9999 -9999 -9999 -9999 -9999 -9999 -9999 -9999 -9999 -9999 -9999 -9999 -9999 -9999 -9999 -9999 -9999 -9999 -9999 -9999 -9999 -9999 -9999 -9999 -9999 -9999 -9999 -9999 -9999 -9999 -9999 -9999 -9999 -9999 -9999 -9999 -9999 -9999 -9999 -9999 -9999 -9999 -9999 -9999 -9999 -9999 104.5117 79.38354 91.70062 174.0813 267.824 393.2971 451.3412 294.2543 358.9231 384.6805 365.5757 510.1722 739.9564 627.77 457.9975 473.8944 585.8478 930.757 1046.123 1045.185 1053.469 1015.656 1020.683 865.6862 810.6536 955.6631 993.3905 808.3541 772.593 518.236 494.8073 529.6248 592.1063 470.9159 589.3054 550.9655 493.7918 550.3978 449.5273 462.586 393.3695 388.8683 470.9598 518.876 656.4904 755.8975 889.616 756.728 740.8173 734.0638 767.3455 637.7475 660.4678 359.5028 566.2096 786.4008 485.5404 567.4687 321.4056 185.2715 161.6145 249.1255 342.1749 290.8736 352.6734 338.937 306.5783 369.1174 282.7167 271.8068 259.323 229.8143 185.2108 161.7904 174.2869 161.483 121.3899 110.6308 95.42417 87.67269 75.10721 65.30009 52.50967 41.7876 33.59738 24.87348 17.74519 13.22 10.67926 9.343102 8.367 8.367 8.367 8.367 8.559843 8.358073 8.38176 8.253656 8.898742 10.04524 11.71063 11.02125 11.323 10.45648 9.814358 9.320285 9.00774 8.307886 8.432552 10.20339 10.87826 11.50628 12.20867 12.89342 13.00641 13.05049 14.00073 14.08715 16.6246 13.32251 14.7558 14.75961 16.9976 17.48878 16.00345 18.22672 20.55857 18.62784 20.77547 22.34757 23.75563 25.35766 25.16233 26.57698 29.97441 30.95304 31.27928 34.2533 43.3422 44.04896 49.37816 74.06121 103.8885 176.3102 103.8962 91.20345 104.5382 155.4537 147.2324 150.7555 232.6138 295.3268 334.5622 350.027 480.9452 483.8013 465.8168 488.7645 491.7229 559.9401 601.3901 778.2173 665.1889 601.1473 615.2421 672.209 663.0892 688.9094 601.6495 684.0428 704.8571 729.1591 744.8431 706.1119 667.9005 755.9542 803.475 872.1115 771.0579 807.9423 905.5187 859.8481 965.9628 1007.721 1091.214 1025.486 1150.168 1187.969 1293.64 1303.054 1176.388 840.0251 1079.69 910.6575 992.7011 1341.67 1455.483 1530.868 1553.155 1453.526 1545.871 1685.442 1773.859 1818.682 1864.274 1899.075 -9999 -9999 -9999 -9999 -9999 -9999 -9999 -9999 -9999 -9999 -9999 -9999 -9999 -9999 -9999 -9999 -9999 -9999 -9999 -9999 -9999 -9999 -9999 -9999 -9999 -9999 -9999 -9999 -9999 -9999 -9999 -9999 -9999 -9999 -9999 -9999 -9999 -9999 -9999 -9999 -9999 -9999 -9999 -9999 -9999 -9999 -9999 -9999 -9999 -9999 -9999 -9999 -9999 -9999 -9999 -9999 -9999 -9999 -9999 -9999 -9999 -9999 -9999 -9999 -9999 -9999 -9999 -9999
-9999 -9999 -9999 -9999 -9999 -9999 -9999 -9999 -9999 -9999 -9999 -9999 -9999 -9999 -9999 -9999 -9999 -9999 -9999 -9999 -9999 -9999 -9999 -9999 -9999 -9999 -9999 -9999 -9999 -9999 -9999 -9999 -9999 -9999 -9999 -9999 -9999 -9999 -9999 -9999 -9999 -9999 -9999 -9999 -9999 -9999 -9999 -9999 -9999 -9999 -9999 -9999 -9999 -9999 -9999 -9999 -9999 -9999 -9999 -9999 -9999 -9999 -9999 -9999 -9999 -9999 -9999 -9999 -9999 -9999 -9999 -9999 -9999 -9999 -9999 -9999 -9999 112.9251 84.85302 77.81319 137.7799 324.8874 346.328 438.1547 474.4384 370.8411 674.6395 661.5157 468.2319 438.9472 644.4029 653.533 619.6758 427.9762 833.8348 859.6767 887.774 1264.084 1232.525 1227.3 945.8231 822.0667 951.4853 1081.868 982.1005 808.6389 601.2242 448.587 544.6411 571.172 518.8686 528.721 607.5869 679.3265 563.9878 530.3837 418.5341 401.7965 322.902 367.2984 553.4393 725.3461 712.1914 796.2336 696.6055 719.6627 659.3931 810.7781 711.2894 670.0362 372.7185 495.6533 794.7733 710.2441 435.6517 254.2964 347.2722 625.8659 277.8158 181.0443 226.8192 245.1232 263.5841 338.8067 354.5432 322.3995 261.2793 285.3721 239.1942 247.3562 210.1785 192.644 150.853 138.7997 116.4258 99.30132 88.03883 74.00655 63.17318 55.09344 44.41623 34.41423 27.05244 19.40615 16.04383 13.30607 11.06657 8.969373 8.371009 8.367 8.367 8.367 8.491858 8.353 8.351719 8.35052 9.850855 9.900979 9.778638 11.37236 10.28149 9.723348 9.323 8.502182 8.307 8.33953 10.17388 11.107 11.36861 12.26815 12.65253 13.00735 12.907 13.68906 14.29725 9.987033 12.893 14.46287 14.57459 15.54433 15.593 15.593 17.70607 18.44114 19.41209 22.06729 22.34084 25.79084 26.56607 27.20054 28.30161 31.75844 32.81576 35.73056 35.50303 43.73134 40.71272 54.65792 75.48546 103.4095 176.1267 127.8578 118.1922 222.2544 194.3464 207.7673 280.2574 245.4314 255.922 264.382 368.4308 402.7375 431.8682 532.0908 445.8835 489.928 619.1824 575.7133 780.6851 572.2928 606.463 648.6605 693.1434 709.9699 627.675 595.9454 614.0963 724.0046 736.4483 747.2341 733.1206 687.669 808.9138 780.3746 678.4426 843.293 806.5957 875.2686 990.5937 924.6951 943.8711 1106.77 1233.604 1221.925 877.4642 992.5698 949.1278 655.6437 752.8884 809.8651 902.5294 1273.972 1026.615 1051.603 1001.832 1437.131 1639.521 1688.263 1606.881 1699.208 1652.308 1785.218 1905.604 -9999 -9999 -9999 -9999 -9999 -9999 -9999 -9999 -9999 -9999 -9999 -9999 -9999 -9999 -9999 -9999 -9999 -9999 -9999 -9999 -9999 -9999 -9999 -9999 -9999 -9999 -9999 -9999 -9999 -9999 -9999 -9999 -9999 -9999 -9999 -9999 -9999 -9999 -9999 -9999 -9999 -9999 -9999 -9999 -9999 -9999 -9999 -9999 -9999 -9999 -9999 -9999 -9999 -9999 -9999 -9999 -9999 -9999 -9999 -9999 -9999 -9999 -9999 -9999 -9999 -9999 -9999 -9999
-9999 -9999 -9999 -9999 -9999 -9999 -9999 -9999 -9999 -9999 -9999 -9999 -9999 -9999 -9999 -9999 -9999 -9999 -9999 -9999 -9999 -9999 -9999 -9999 -9999 -9999 -9999 -9999 -9999 -9999 -9999 -9999 -9999 -9999 -9999 -9999 -9999 -9999 -9999 -9999 -9999 -9999 -9999 -9999 -9999 -9999 -9999 -9999 -9999 -9999 -9999 -9999 -9999 -9999 -9999 -9999 -9999 -9999 -9999 -9999 -9999 -9999 -9999 -9999 -9999 -9999 -9999 -9999 -9999 -9999 -9999 -9999 -9999 -9999 -9999 -9999 -9999 119.9456 97.47492 94.50352 117.8698 222.846 281.8247 416.0983 440.6494 302.596 435.6069 610.2382 740.7683 669.1019 471.5084 695.5543 850.7224 655.4041 519.5272 778.8815 900.6539 1121.668 1318.39 1381.546 1082.713 788.2426 941.8781 1095.391 1070.673 861.6489 662.5907 459.627 436.5619 569.0895 449.1943 450.0898 506.2639 602.6422 586.5394 547.2975 551.236 449.2761 385.2162 465.5243 483.0933 565.4684 630.9807 704.3959 692.91 684.9985 654.6103 694.5836 726.6879 505.6926 474.2166 545.9545 730.644 766.9608 564.0191 270.5486 463.3617 670.175 483.794 280.1553 129.277 163.4483 262.8091 383.949 360.832 357.6208 320.1142 289.5133 237.6174 232.3455 242.8951 196.0425 158.3244 150.8258 119.3439 101.8266 92.34242 77.06277 64.17541 53.72966 45.24421 35.22131 27.49258 21.93777 20.33822 14.90603 13.24892 9.831807 8.426574 8.369305 8.39749 8.367 8.472386 8.353 8.353 8.517722 9.807508 11.47387 12.43544 11.47357 9.685902 8.702512 8.98183 9.2875 8.29397 8.556827 11.14535 11.29966 11.30518 12.44824 11.93473 12.10355 12.707 13.59551 14.6175 15.40835 12.893 14.31045 14.76425 13.10735 15.893 17.67494 19.1676 21.34169 21.97267 22.18205 23.40724 24.29903 26.57882 27.24682 28.06751 31.07473 31.46265 34.05861 36.05627 37.48458 41.60092 67.75232 74.3723 111.781 149.9446 138.4447 151.0664 187.827 214.7822 200.4538 251.2081 293.8255 288.6628 313.7562 366.8066 289.6823 385.0193 423.0134 459.946 526.9448 550.751 594.9835 684.5198 528.1544 630.4426 640.5779 625.6135 648.2262 554.5511 592.9627 644.0174 731.6674 719.5734 733.9886 707.0906 662.2109 662.204 854.289 758.2731 855.1526 837.7252 1075.725 1006.523 897.1308 1133.373 1203.48 1228.452 835.1623 615.7355 795.2775 600.4998 745.5911 1182.269 1196.829 1098.868 848.4598 1006.643 900.5231 732.4378 1070.071 1303.716 1451.199 1383.662 1424.029 1207.256 1201.751 1346.561 -9999 -9999 -9999 -9999 -9999 -9999 -9999 -9999 -9999 -9999 -9999 -9999 -9999 -9999 -9999 -9999 -9999 -9999 -9999 -9999 -9999 -9999 -9999 -9999 -9999 -9999 -9999 -9999 -9999 -9999 -9999 -9999 -9999 -9999 -9999 -9999 -9999 -9999 -9999 -9999 -9999 -9999 -9999 -9999 -9999 -9999 -9999 -9999 -9999 -9999 -9999 -9999 -9999 -9999 -9999 -9999 -9999 -9999 -9999 -9999 -9999 -9999 -9999 -9999 -9999 -9999 -9999 -9999
-9999 -9999 -9999 -9999 -9999 -9999 -9999 -9999 -9999 -9999 -9999 -9999 -9999 -9999 -9999 -9999 -9999 -9999 -9999 -9999 -9999 -9999 -9999 -9999 -9999 -9999 -9999 -9999 -9999 -9999 -9999 -9999 -9999 -9999 -9999 -9999 -9999 -9999 -9999 -9999 -9999 -9999 -9999 -9999 -9999 -9999 -9999 -9999 -9999 -9999 -9999 -9999 -9999 -9999 -9999 -9999 -9999 -9999 -9999 -9999 -9999 -9999 -9999 -9999 -9999 -9999 -9999 -9999 -9999 -9999 -9999 -9999 -9999 -9999 -9999 -9999 -9999 145.6243 101.5972 104.3213 74.5518 124.4348 217.0799 207.914 421.117 512.6584 391.0576 570.4188 737.7993 808.1569 787.2632 732.2661 925.5802 813.2869 777.4997 633.9534 948.1284 994.2362 1144.544 953.6011 859.079 751.7497 885.3076 1054.755 997.573 885.0182 725.4861 502.6094 381.0631 402.2251 465.2047 418.5402 411.3767 564.6229 657.5682 543.4177 545.1548 490.6345 351.7545 517.9543 633.2711 513.8502 468.3898 580.7328 699.7779 675.4992 645.0093 683.0445 730.4739 557.6605 606.1132 454.1946 611.8234 798.5608 579.577 397.8255 549.8994 708.5527 533.7075 331.7328 138.5693 157.2877 229.4078 319.5577 456.1528 412.7625 363.4412 325.1157 298.2209 257.7826 245.1805 209.7326 165.2409 137.3248 117.3324 102.5839 89.73824 77.94283 66.67173 56.69724 45.87547 37.66983 30.37134 24.96089 22.10411 18.31838 14.62856 10.71589 8.665471 9.128764 8.366712 9.164921 8.349289 8.350858 8.919103 9.879555 10.98997 10.41898 9.923042 10.08519 8.918018 8.353 8.974548 9.61628 8.339943 8.618413 10.41769 10.47726 12.07746 11.81198 11.407 11.64791 12.50627 13.58404 15.58892 12.78538 12.89244 13.18753 12.893 13.40006 15.93507 17.34895 18.97565 20.46819 20.65697 21.77971 23.57272 25.911 25.32673 28.26862 29.83425 31.17869 32.46024 33.08527 34.89469 47.05998 49.06142 72.12365 97.02883 100.285 131.3898 150.7964 140.0209 179.7716 261.1255 222.3504 246.3878 287.4243 295.8374 382.0515 416.9572 338.3023 372.2479 402.9002 462.1689 490.6423 595.3109 530.6561 558.418 553.9207 631.9703 651.9841 536.5302 572.1499 536.5713 612.7806 764.5173 667.5599 655.5826 713.1631 662.204 662.204 781.6714 850.8116 864.9275 910.3647 875.8517 971.4133 987.6406 861.084 1084.741 839.7605 638.2449 565.975 640.1884 803.9656 1193.739 697.066 819.2077 782.435 733.2638 1117.265 1344.006 1241.937 938.7917 990.2057 848.28 905.5126 900.2253 842.8638 996.4144 955.9291 933.5334 -9999 -9999 -9999 -9999 -9999 -9999 -9999 -9999 -9999 -9999 -9999 -9999 -9999 -9999 -9999 -9999 -9999 -9999 -9999 -9999 -9999 -9999 -9999 -9999 -9999 -9999 -9999 -9999 -9999 -9999 -9999 -9999 -9999 -9999 -9999 -9999 -9999 -9999 -9999 -9999 -9999 -9999 -9999 -9999 -9999 -9999 -9999 -9999 -9999 -9999 -9999 -9999 -9999 -9999 -9999 -9999 -9999 -9999 -9999 -9999 -9999 -9999 -9999 -9999 -9999 -9999 -9999 -9999
-9999 -9999 -9999 -9999 -9999 -9999 -9999 -9999 -9999 -9999 -9999 -9999 -9999 -9999 -9999 -9999 -9999 -9999 -9999 -9999 -9999 -9999 -9999 -9999 -9999 -9999 -9999 -9999 -9999 -9999 -9999 -9999 -9999 -9999 -9999 -9999 -9999 -9999 -9999 -9999 -9999 -9999 -9999 -9999 -9999 -9999 -9999 -9999 -9999 -9999 -9999 -9999 -9999 -9999 -9999 -9999 -9999 -9999 -9999 -9999 -9999 -9999 -9999 -9999 -9999 -9999 -9999 -9999 -9999 -9999 -9999 -9999 -9999 -9999 -9999 -9999 -9999 118.5233 192.2097 88.75958 93.45 151.1618 178.8986 204.0952 333.7665 495.562 491.4291 469.9616 729.3237 976.3301 670.0471 654.1718 869.2164 1029 833.446 725.5265 872.9481 1055.995 1015.844 800.9082 770.6297 620.7366 701.889 898.132 736.6777 824.4318 494.5419 596.0366 379.9269 390.3257 341.9192 408.1924 369.3246 453.3743 509.3379 540.2626 502.0966 424.0315 380.2518 341.2003 506.4117 602.2759 538.1625 450.2842 561.2391 655.169 654.5527 661.1118 668.1083 601.3427 472.5314 457.1893 529.1618 668.8381 586.4048 476.6675 625.0462 674.9109 552.7714 405.0446 190.6566 123.0633 217.2209 257.4626 470.2637 508.0081 368.4885 402.246 321.6523 242.6926 251.6613 176.1246 162.1685 144.3036 123.2898 104.787 91.24139 80.03354 67.70974 56.03496 48.92945 42.45431 32.39131 27.35453 22.27485 19.26433 15.94248 11.21474 9.590137 8.648389 9.360959 8.679519 8.348559 8.787431 11.15715 11.40602 9.881206 10.05301 9.108255 9.070407 8.353 8.353 8.356357 9.077582 8.561863 8.341 9.49784 9.878027 11.10769 11.32296 11.40897 11.53723 12.57267 12.89416 14.55552 11.18685 12.88955 13.02553 14.35683 14.24242 16.19906 17.39297 19.69484 18.97065 17.8377 20.47396 20.51941 23.97697 25.74926 27.25306 28.78437 30.68455 29.78208 30.90811 43.38126 43.11735 53.86324 74.47586 98.12109 111.376 106.2114 123.4733 144.1711 182.7552 241.3921 248.2499 281.0069 297.1674 330.2979 346.1314 383.2387 390.723 382.1357 403.7837 450.4462 528.4731 471.9042 482.4571 519.6039 566.0473 663.9962 695.3633 527.8652 572.0972 664.0547 581.7615 692.8849 629.2802 671.0527 590.4164 725.6102 716.0206 847.6609 918.3206 916.4694 842.831 828.1318 912.4366 915.9566 569.9711 486.4508 640.6725 1189.025 818.2549 898.4012 1150.275 1208.42 995.4451 876.3832 835.4143 1116.931 1378.305 1527.917 1395.945 1483.08 1394.065 1150.795 1110.485 1136.966 1197.628 1436.468 1407.454 1304.05 -9999 -9999 -9999 -9999 -9999 -9999 -9999 -9999 -9999 -9999 -9999 -9999 -9999 -9999 -9999 -9999 -9999 -9999 -9999 -9999 -9999 -9999 -9999 -9999 -9999 -9999 -9999 -9999 -9999 -9999 -9999 -9999 -9999 -9999 -9999 -9999 -9999 -9999 -9999 -9999 -9999 -9999 -9999 -9999 -9999 -9999 -9999 -9999 -9999 -9999 -9999 -9999 -9999 -9999 -9999 -9999 -9999 -9999 -9999 -9999 -9999 -9999 -9999 -9999 -9999 -9999 -9999 -9999
-9999 -9999 -9999 -9999 -9999 -9999 -9999 -9999 -9999 -9999 -9999 -9999 -9999 -9999 -9999 -9999 -9999 -9999 -9999 -9999 -9999 -9999 -9999 -9999 -9999 -9999 -9999 -9999 -9999 -9999 -9999 -9999 -9999 -9999 -9999 -9999 -9999 -9999 -9999 -9999 -9999 -9999 -9999 -9999 -9999 -9999 -9999 -9999 -9999 -9999 -9999 -9999 -9999 -9999 -9999 -9999 -9999 -9999 -9999 -9999 -9999 -9999 -9999 -9999 -9999 -9999 -9999 -9999 -9999 -9999 -9999 -9999 -9999 -9999 -9999 -9999 -9999 93.72596 151.8486 104.7085 75.89968 71.21378 131.0787 117.6304 211.5484 421.3149 520.27 404.3659 648.6229 804.9144 548.8572 653.0156 725.168 907.7764 1035.99 776.0168 696.5146 802.517 964.936 712.3071 621.6882 557.5699 538.4423 742.0723 584.6605 602.3432 566.9062 379.1027 362.919 311.9199 305.2602 331.2992 376.1756 357.2647 496.1306 536.4402 565.9345 431.7324 329.5492 355.7103 367.0632 530.5842 529.364 423.6877 379.4086 482.1815 661.568 594.6429 696.4316 549.9591 435.851 466.203 731.9481 774.0202 550.3885 521.4926 773.7663 577.1873 680.3139 397.4843 243.1455 121.2352 119.0664 192.792 409.2033 498.2079 463.6088 446.9723 262.5923 249.3962 244.5686 213.3639 170.1297 130.2578 118.4421 102.1149 89.26064 78.81133 67.31699 56.78947 48.41784 41.32205 35.6197 29.64043 26.49751 19.34865 16.13692 11.69375 9.279263 8.027362 9.414924 8.341628 8.339751 9.302956 11.37052 11.3983 9.876734 8.92937 8.653896 8.352153 8.352938 8.352988 8.341901 8.53578 9.062491 8.341 8.367314 9.86533 10.45105 10.81292 11.02148 11.57182 12.2277 12.20854 13.02811 13.73888 16.13053 12.89873 14.18754 13.95821 15.25046 16.9572 18.53448 20.36811 21.66556 21.9663 23.27521 23.76752 25.62482 24.93892 27.28202 29.97586 29.09267 37.76036 36.05321 45.55215 55.05189 80.67573 96.85138 91.9464 95.05544 102.7095 122.6606 126.7558 183.5891 192.0506 273.8822 275.4489 314.5735 374.0821 437.8082 470.0042 469.8519 501.2787 467.8247 458.1927 470.9042 526.6126 473.798 614.0391 606.9191 640.1116 520.8892 613.6505 624.7157 589.686 557.1353 637.4631 637.9513 705.4625 690.5895 855.7566 828.6204 821.4967 642.7555 857.9181 819.7096 744.4797 574.618 669.1551 1103.602 1172.702 1245.117 1095.923 1140.968 1308.608 1331.896 1287.571 1117.183 862.1584 905.7152 1314.268 1538.833 1585.612 1628.888 1637.182 1475.116 1488.199 1503.336 1576.166 1672.784 1768.954 1742.292 -9999 -9999 -9999 -9999 -9999 -9999 -9999 -9999 -9999 -9999 -9999 -9999 -9999 -9999 -9999 -9999 -9999 -9999 -9999 -9999 -9999 -9999 -9999 -9999 -9999 -9999 -9999 -9999 -9999 -9999 -9999 -9999 -9999 -9999 -9999 -9999 -9999 -9999 -9999 -9999 -9999 -9999 -9999 -9999 -9999 -9999 -9999 -9999 -9999 -9999 -9999 -9999 -9999 -9999 -9999 -9999 -9999 -9999 -9999 -9999 -9999 -9999 -9999 -9999 -9999 -9999 -9999 -9999
-9999 -9999 -9999 -9999 -9999 -9999 -9999 -9999 -9999 -9999 -9999 -9999 -9999 -9999 -9999 -9999 -9999 -9999 -9999 -9999 -9999 -9999 -9999 -9999 -9999 -9999 -9999 -9999 -9999 -9999 -9999 -9999 -9999 -9999 -9999 -9999 -9999 -9999 -9999 -9999 -9999 -9999 -9999 -9999 -9999 -9999 -9999 -9999 -9999 -9999 -9999 -9999 -9999 -9999 -9999 -9999 -9999 -9999 -9999 -9999 -9999 -9999 -9999 -9999 -9999 -9999 -9999 -9999 -9999 -9999 -9999 -9999 -9999 -9999 -9999 -9999 -9999 83.44133 126.939 214.2499 102.7613 65.19253 71.22473 164.4721 154.4716 312.8396 485.9267 564.037 449.916 493.33 741.8119 856.6907 616.2862 725.3207 764.6213 979.1811 909.8973 811.6998 1015.472 813.1802 546.2186 476.8427 417.9353 516.0051 654.4349 504.7148 623.3237 524.7631 328.3795 446.0348 410.1706 295.979 299.3814 394.5058 424.6782 548.7457 509.7838 407.8534 285.4431 354.3734 462.8579 564.2701 470.747 430.0829 396.579 444.9622 659.9002 580.7892 619.1371 650.4741 474.6272 519.9394 674.8559 667.8335 480.7933 617.7989 848.194 713.7502 641.4941 325.1327 263.6283 138.4978 118.3246 196.9094 403.5841 489.0306 503.6446 414.9943 250.8962 276.6214 181.3808 157.4416 143.8009 150.5632 111.1681 102.8578 84.46494 73.68266 61.71945 53.79917 46.3345 38.35987 31.82779 26.69975 21.13071 18.17172 14.44981 10.55036 8.364391 8.03172 8.03172 8.160419 8.985206 9.735222 11.37052 10.63907 9.654872 8.351556 8.353 8.353 8.361567 8.149158 8.19295 8.051393 10.17754 9.342785 8.341 8.897397 10.0201 10.43938 10.99071 11.54234 12.28655 12.22671 12.80532 12.12053 14.51048 13.32527 12.5373 15.94057 15.93791 17.8349 19.63847 20.78983 21.16848 20.92726 22.07614 22.38295 22.67922 23.88048 25.53729 26.70074 39.43739 31.84159 47.14557 42.45374 51.63264 48.54753 78.16789 89.63455 94.3804 126.7765 148.0192 128.1045 155.1372 289.5631 374.3515 369.9083 355.1476 378.5459 415.4807 435.5004 523.7183 489.9678 487.9672 488.4553 444.6629 492.7112 546.6122 602.0024 531.2231 470.8811 561.3829 617.4016 643.7823 676.3223 600.4383 582.5258 719.2256 766.4295 729.4761 808.38 843.7703 662.7031 812.8101 822.9921 671.7266 598.5302 597.852 957.6281 1076.717 1143.266 1249.291 1182.694 1219.787 1204.004 1214.451 1304.621 1183.695 970.0553 934.1039 1253.011 1466.978 1573.683 1609.701 1608.063 1606.784 1629.059 1537.036 1706.745 1614.538 1682.271 1856.915 -9999 -9999 -9999 -9999 -9999 -9999 -9999 -9999 -9999 -9999 -9999 -9999 -9999 -9999 -9999 -9999 -9999 -9999 -9999 -9999 -9999 -9999 -9999 -9999 -9999 -9999 -9999 -9999 -9999 -9999 -9999 -9999 -9999 -9999 -9999 -9999 -9999 -9999 -9999 -9999 -9999 -9999 -9999 -9999 -9999 -9999 -9999 -9999 -9999 -9999 -9999 -9999 -9999 -9999 -9999 -9999 -9999 -9999 -9999 -9999 -9999 -9999 -9999 -9999 -9999 -9999 -9999 -9999
-9999 -9999 -9999 -9999 -9999 -9999 -9999 -9999 -9999 -9999 -9999 -9999 -9999 -9999 -9999 -9999 -9999 -9999 -9999 -9999 -9999 -9999 -9999 -9999 -9999 -9999 -9999 -9999 -9999 -9999 -9999 -9999 -9999 -9999 -9999 -9999 -9999 -9999 -9999 -9999 -9999 -9999 -9999 -9999 -9999 -9999 -9999 -9999 -9999 -9999 -9999 -9999 -9999 -9999 -9999 -9999 -9999 -9999 -9999 -9999 -9999 -9999 -9999 -9999 -9999 -9999 -9999 -9999 -9999 -9999 -9999 -9999 -9999 -9999 -9999 -9999 -9999 75.06992 106.7862 153.8677 208.1519 67.71943 66.87733 117.175 157.2577 270.2696 392.4745 521.6294 618.2205 590.4577 868.3498 915.569 753.1692 625.251 702.5623 773.7209 979.853 817.827 955.1848 812.2486 673.9989 472.3648 503.5616 378.3827 430.4672 484.4426 487.1808 432.6043 322.9048 380.3944 418.1599 332.0972 295.7889 301.0832 318.9836 376.7125 497.7566 456.5979 306.028 321.3535 427.7955 613.6065 482.784 458.0578 418.6911 411.5749 554.1318 549.9427 486.3401 574.0521 579.8535 548.8822 662.0103 721.0199 539.2029 726.5743 730.4676 614.2009 598.1604 342.93 221.6587 134.5152 117.135 207.1466 397.0613 388.3573 392.8317 320.0269 205.3383 241.2537 227.3648 167.1067 179.7603 126.929 121.8965 109.832 90.47581 79.17381 64.71535 59.75013 41.5284 32.50693 29.02142 23.64433 20.41377 16.74508 13.18068 9.261597 8.326115 8.031254 8.181304 9.470254 9.941713 9.877 11.40055 11.20417 9.011051 8.353 8.03688 8.230941 8.334357 8.200999 7.649393 7.689106 8.334739 10.70034 8.406149 8.341 9.759964 10.37781 10.8794 11.38221 11.67386 11.67763 12.72423 13.62252 12.07731 12.899 12.89762 14.78248 16.57204 17.45698 19.13104 20.33092 18.54605 20.29385 19.93384 20.98426 23.46524 24.07791 27.83521 28.1819 29.67038 31.16837 35.25171 35.37158 41.08624 75.68838 119.1323 92.37118 91.64277 168.8863 143.0877 167.599 236.4706 290.1761 361.2911 362.1296 349.0779 374.8693 376.5717 428.1836 476.0898 503.3714 477.6609 482.6335 446.9531 490.6656 518.153 545.8325 476.4864 513.1829 651.4357 672.3063 613.1903 675.2596 667.2693 677.7816 745.8252 745.7056 655.0511 706.9368 538.3356 372.2751 458.6397 810.8461 495.3487 681.0745 817.9706 1096.841 1079.105 1173.39 1110.884 1191.416 1193.1 1215.249 1294.057 1289.412 1226.602 1299.549 1151.026 1221.073 1388.302 1564.211 1583.199 1514.161 1606.057 1491.524 1653.711 1655.505 1524.184 1682.526 1879.23 -9999 -9999 -9999 -9999 -9999 -9999 -9999 -9999 -9999 -9999 -9999 -9999 -9999 -9999 -9999 -9999 -9999 -9999 -9999 -9999 -9999 -9999 -9999 -9999 -9999 -9999 -9999 -9999 -9999 -9999 -9999 -9999 -9999 -9999 -9999 -9999 -9999 -9999 -9999 -9999 -9999 -9999 -9999 -9999 -9999 -9999 -9999 -9999 -9999 -9999 -9999 -9999 -9999 -9999 -9999 -9999 -9999 -9999 -9999 -9999 -9999 -9999 -9999 -9999 -9999 -9999 -9999 -9999
