2.659451303155006826e+03,2.507037037037036498e+03,2.360617283950617548e+03,2.240891632373114135e+03,2.156954732510287613e+03,2.104211248285322199e+03,2.064348422496570493e+03,2.027160493827160508e+03,1.991234567901234414e+03,1.960919067215363611e+03,1.939368998628257714e+03,1.926282578875171339e+03,1.918614540466392327e+03,1.910919067215363611e+03,1.897050754458162146e+03,1.875871056241426686e+03,1.850356652949245472e+03,1.826419753086419632e+03,1.806474622770919041e+03,1.791220850480109675e+03,1.779437585733882088e+03,1.770219478737997406e+03,1.762181069958847957e+03,1.754526748971193228e+03,1.746790123456789843e+03,1.739286694101509056e+03,1.731755829903978338e+03,1.725157750342935287e+03,1.719094650205761354e+03,1.713854595336076727e+03,1.707407407407407618e+03,1.699314128943758533e+03,1.689766803840878083e+03,1.680987654320987758e+03,1.674183813443072722e+03,1.668943758573388095e+03,1.663580246913580140e+03,1.657503429355281241e+03,1.650381801554641015e+03,1.643260173754001016e+03,1.636138545953360790e+03,1.629016918152720564e+03,1.621895290352080565e+03,1.614773662551440339e+03,1.614773662551440339e+03,1.614773662551440339e+03,1.614773662551440339e+03,1.614773662551440339e+03,1.614773662551440339e+03,1.614773662551440339e+03,1.614773662551440339e+03,1.614773662551440339e+03,1.614773662551440339e+03,1.614773662551440339e+03,1.614773662551440339e+03,1.650226210435401072e+03,1.685678758319362032e+03,1.721131306203322765e+03,1.756583854087283498e+03,1.792036401971244459e+03,1.827488949855205192e+03,1.870032007315958026e+03,1.921083676268861609e+03,1.942496570644718759e+03,1.961646090534979294e+03,1.977791495198902567e+03,1.992016460905349504e+03,2.005212620027434923e+03,2.018449931412894330e+03,2.032386831275720169e+03,2.048065843621398926e+03,2.067585733882030127e+03,2.092194787379972695e+03,2.123566529492455629e+03,2.159643347050754528e+03,2.198710562414265951e+03,2.237421124828532356e+03,2.275075445816186857e+03,2.309890260631001638e+03,2.341138545953361245e+03,2.369368998628257941e+03,2.399012345679012014e+03,2.434581618655692637e+03,2.477750342935528352e+03,2.525322359396433512e+03,2.572949245541838536e+03,2.618957475994513061e+03,2.665267489711934104e+03,2.715528120713305725e+03,2.771632373113854555e+03,2.832702331961591426e+03,2.896021947873799490e+03,2.955939643347050605e+03,3.008491083676268318e+03,3.050877914951989169e+03,3.086227709190672158e+03,3.114485596707819241e+03,3.134101508916323837e+03,3.141262002743484118e+03,3.144224965706447165e+03,3.154170096021947757e+03,3.181316872427983981e+03,3.212770919067215345e+03,3.227818930041152271e+03,3.213662551440329025e+03,3.188614540466392100e+03,3.185802469135802312e+03,3.215665294924553564e+03,3.258422496570644853e+03,3.286282578875171112e+03,3.295514403292181214e+03,3.301344307270233458e+03,3.313072702331961409e+03,3.330528120713306180e+03,3.342592592592593064e+03,3.348617969821673796e+03,3.345826474622770547e+03,3.344305555555556111e+03,3.339629629629629562e+03
2.589451303155006826e+03,2.477860082304526259e+03,2.355939643347050605e+03,2.241097393689986347e+03,2.151659807956104487e+03,2.095267489711934104e+03,2.057421124828532356e+03,2.024197530864197461e+03,1.990329218106995995e+03,1.959533607681755711e+03,1.936255144032921635e+03,1.920617283950617093e+03,1.910205761316872213e+03,1.900233196159122144e+03,1.886310013717421270e+03,1.866625514403292300e+03,1.843813443072702057e+03,1.822098765432098617e+03,1.803552812071330436e+03,1.787805212620027532e+03,1.773676268861453991e+03,1.761440329218107081e+03,1.751303155006858560e+03,1.743497942386831028e+03,1.736735253772290889e+03,1.730178326474622736e+03,1.723086419753086375e+03,1.716694101508916447e+03,1.711371742112482707e+03,1.707215363511659689e+03,1.701920438957476108e+03,1.694567901234567898e+03,1.685281207133059070e+03,1.676625514403292300e+03,1.669986282578875034e+03,1.665144032921810776e+03,1.660178326474622736e+03,1.654334705075445981e+03,1.647857796067672780e+03,1.641380887059899578e+03,1.634903978052126149e+03,1.628427069044352947e+03,1.621950160036579746e+03,1.615473251028806544e+03,1.615473251028806544e+03,1.615473251028806544e+03,1.615473251028806544e+03,1.615473251028806544e+03,1.615473251028806544e+03,1.615473251028806544e+03,1.615473251028806544e+03,1.615473251028806544e+03,1.615473251028806544e+03,1.615473251028806544e+03,1.615473251028806544e+03,1.657905807041609478e+03,1.700338363054412412e+03,1.742770919067215345e+03,1.785203475080018279e+03,1.827636031092821213e+03,1.870068587105624147e+03,1.894471879286694048e+03,1.922043895747599436e+03,1.948353909465020706e+03,1.972181069958847957e+03,1.993593964334705106e+03,2.013635116598079321e+03,2.033347050754458451e+03,2.051893004115226177e+03,2.069396433470507418e+03,2.084581618655693092e+03,2.100315500685870575e+03,2.117873799725651679e+03,2.143017832647462001e+03,2.175610425240055065e+03,2.215569272976680168e+03,2.257791495198902339e+03,2.299163237311385274e+03,2.336351165980795486e+03,2.368038408779148995e+03,2.396351165980795486e+03,2.425596707818929644e+03,2.460905349794238646e+03,2.503058984910836443e+03,2.550672153635116501e+03,2.599588477366255120e+03,2.649355281207132975e+03,2.701179698216735233e+03,2.758930041152263129e+03,2.822976680384088013e+03,2.892085048010973878e+03,2.961330589849108037e+03,3.022798353909465277e+03,3.065692729766803950e+03,3.083950617283950578e+03,3.082647462277092473e+03,3.074513031550068717e+03,3.070603566529492582e+03,3.073827160493826796e+03,3.087544581618655684e+03,3.112400548696844908e+03,3.148134430727023300e+03,3.177558299039780650e+03,3.185020576131687449e+03,3.166227709190672158e+03,3.144526748971193228e+03,3.148518518518518249e+03,3.183004115226337490e+03,3.225157750342935287e+03,3.249986282578875034e+03,3.254965706447188040e+03,3.255212620027434696e+03,3.258600823045267589e+03,3.265665294924554019e+03,3.269766803840877856e+03,3.271680384087791936e+03,3.270541838134430236e+03,3.270092592592592609e+03,3.268518518518518249e+03
2.565843621399177209e+03,2.498669410150891508e+03,2.396858710562414217e+03,2.276406035665294894e+03,2.168285322359396559e+03,2.095651577503429507e+03,2.052620027434842086e+03,2.022949245541837854e+03,1.995541838134430691e+03,1.969451303155007054e+03,1.947585733882029899e+03,1.929149519890260535e+03,1.913168724279835260e+03,1.897050754458162146e+03,1.880644718792867025e+03,1.861769547325103076e+03,1.841865569272976700e+03,1.821577503429355602e+03,1.802510288065843952e+03,1.784197530864197461e+03,1.766913580246913398e+03,1.752071330589849140e+03,1.740905349794238418e+03,1.733895747599451397e+03,1.729149519890260535e+03,1.724375857338820424e+03,1.717956104252400564e+03,1.710727023319615682e+03,1.704362139917695458e+03,1.699684499314128743e+03,1.695144032921810776e+03,1.689067215363511878e+03,1.680960219478738281e+03,1.672716049382716164e+03,1.665843621399177209e+03,1.660521262002743697e+03,1.655432098765432329e+03,1.650027434842249704e+03,1.643891175125743075e+03,1.638777625361987702e+03,1.634516333892191369e+03,1.630965257667361129e+03,1.628006027480002558e+03,1.625046797292644214e+03,1.622087567105285643e+03,1.619128336917927072e+03,1.616169106730568728e+03,1.613209876543210157e+03,1.613209876543210157e+03,1.613209876543210157e+03,1.613209876543210157e+03,1.613209876543210157e+03,1.613209876543210157e+03,1.613209876543210157e+03,1.613209876543210157e+03,1.613209876543210157e+03,1.613209876543210157e+03,1.613209876543210157e+03,1.613209876543210157e+03,1.671620941929584205e+03,1.730032007315958026e+03,1.788443072702332074e+03,1.846854138088706122e+03,1.905265203475079943e+03,1.963676268861453991e+03,1.990452674897119323e+03,2.016159122085048011e+03,2.042359396433470693e+03,2.067379972565157459e+03,2.092098765432098844e+03,2.113292181069958588e+03,2.132386831275720397e+03,2.149026063100137435e+03,2.170781893004115773e+03,2.200164609053497770e+03,2.238491083676268772e+03,2.279958847736625103e+03,2.319876543209876672e+03,2.355377229080932466e+03,2.386104252400548376e+03,2.415020576131687449e+03,2.445336076817558478e+03,2.480823045267489761e+03,2.521646090534979521e+03,2.567283950617284063e+03,2.615157750342935742e+03,2.666200274348422226e+03,2.721920438957476108e+03,2.785802469135802312e+03,2.857585733882030127e+03,2.937160493827160735e+03,3.019341563786008464e+03,3.094128943758573769e+03,3.141975308641975062e+03,3.150342935528120506e+03,3.122222222222222626e+03,3.081687242798354418e+03,3.052551440329218167e+03,3.047928669410150633e+03,3.067572016460905161e+03,3.102222222222222172e+03,3.138134430727023300e+03,3.156460905349794757e+03,3.148669410150891053e+03,3.123991769547325021e+03,3.105816186556927278e+03,3.116460905349793848e+03,3.152729766803840903e+03,3.193497942386831255e+03,3.216447187928669337e+03,3.219629629629629562e+03,3.216076817558298899e+03,3.213141289437585328e+03,3.211961591220850551e+03,3.209012345679012469e+03,3.206200274348422226e+03,3.204087791495198871e+03,3.203518518518518249e+03,3.202962962962963047e+03
2.614677640603566033e+03,2.582524005486968690e+03,2.486858710562414217e+03,2.348230452674897151e+03,2.212455418381344316e+03,2.116049382716049422e+03,2.061865569272976245e+03,2.032606310013717120e+03,2.012043895747599436e+03,1.992057613168724174e+03,1.972071330589848912e+03,1.949862825788751479e+03,1.926694101508916219e+03,1.902592592592592382e+03,1.881275720164609083e+03,1.860987654320987758e+03,1.841618655692729817e+03,1.820795610425239829e+03,1.799615912208504824e+03,1.778655692729766770e+03,1.759643347050754528e+03,1.744087791495198871e+03,1.732866941015089196e+03,1.726227709190672158e+03,1.722524005486968463e+03,1.719012345679012469e+03,1.713470507544581551e+03,1.705775034293553063e+03,1.698161865569273232e+03,1.692071330589848912e+03,1.687229080932784655e+03,1.681838134430726996e+03,1.675089163237311141e+03,1.667791495198902567e+03,1.661193415637860198e+03,1.655514403292181214e+03,1.650205761316872440e+03,1.644938271604938336e+03,1.639931412894375853e+03,1.634691358024690999e+03,1.628436213991769364e+03,1.621275720164608856e+03,1.618861454046639210e+03,1.616447187928669337e+03,1.614032921810699463e+03,1.611618655692729817e+03,1.609204389574760171e+03,1.606790123456790297e+03,1.606790123456790297e+03,1.606790123456790297e+03,1.606790123456790297e+03,1.606790123456790297e+03,1.606790123456790297e+03,1.606790123456790297e+03,1.606790123456790297e+03,1.606790123456790297e+03,1.606790123456790297e+03,1.606790123456790297e+03,1.606790123456790297e+03,1.662757201646090607e+03,1.718724279835390917e+03,1.774691358024691453e+03,1.830658436213991763e+03,1.886625514403292073e+03,1.942592592592592382e+03,1.970493827160493993e+03,1.997626886145405024e+03,2.026913580246913625e+03,2.057475994513032219e+03,2.090480109739368800e+03,2.121495198902606262e+03,2.149602194787379631e+03,2.173319615912208064e+03,2.198065843621398926e+03,2.226282578875171566e+03,2.258573388203017657e+03,2.291262002743484572e+03,2.322894375857338673e+03,2.354362139917695458e+03,2.387133058984910804e+03,2.421358024691357969e+03,2.456707818930041412e+03,2.493388203017833348e+03,2.532524005486968690e+03,2.575048010973936925e+03,2.621193415637860198e+03,2.672277091906721125e+03,2.730054869684499408e+03,2.797956104252401019e+03,2.876680384087792390e+03,2.967448559670781833e+03,3.063909465020575681e+03,3.154266117969821607e+03,3.213045267489712387e+03,3.223717421124828434e+03,3.184855967078189224e+03,3.124910836762688632e+03,3.075061728395061891e+03,3.057544581618655684e+03,3.073004115226337490e+03,3.105980795610425048e+03,3.133731138545953399e+03,3.137969821673525075e+03,3.117407407407406936e+03,3.090987654320987531e+03,3.077133058984910804e+03,3.091783264746227360e+03,3.126556927297667698e+03,3.165816186556927278e+03,3.189080932784636843e+03,3.193840877914952216e+03,3.190013717421124966e+03,3.184801097393689815e+03,3.179039780521261946e+03,3.169999999999999545e+03,3.161275720164608629e+03,3.154609053497942568e+03,3.152407407407407391e+03,3.150370370370370438e+03
2.703292181069958588e+03,2.687599451303154638e+03,2.588710562414265951e+03,2.432839506172839720e+03,2.274993141289437972e+03,2.157558299039780195e+03,2.089314128943758533e+03,2.053854595336076727e+03,2.033004115226337490e+03,2.013539094650205698e+03,1.991851851851851507e+03,1.965061728395061664e+03,1.936255144032921635e+03,1.907475994513031310e+03,1.883662551440329253e+03,1.862853223593964685e+03,1.843017832647462228e+03,1.820466392318244289e+03,1.796694101508916674e+03,1.773744855967078365e+03,1.754307270233196277e+03,1.738984910836762765e+03,1.727901234567901383e+03,1.720919067215363611e+03,1.717078189300411395e+03,1.713840877914952216e+03,1.708820301783264767e+03,1.701262002743484345e+03,1.693168724279835487e+03,1.686049382716049195e+03,1.680219478737996951e+03,1.674403292181069673e+03,1.667969821673525530e+03,1.661371742112482934e+03,1.655294924554183808e+03,1.649821673525377037e+03,1.644471879286694275e+03,1.639190672153635205e+03,1.634307270233196050e+03,1.629506172839506007e+03,1.624032921810699463e+03,1.619657064471879266e+03,1.615281207133058842e+03,1.610905349794238646e+03,1.606529492455418449e+03,1.602153635116598025e+03,1.597777777777777828e+03,1.597777777777777828e+03,1.597777777777777828e+03,1.597777777777777828e+03,1.597777777777777828e+03,1.597777777777777828e+03,1.597777777777777828e+03,1.597777777777777828e+03,1.597777777777777828e+03,1.597777777777777828e+03,1.597777777777777828e+03,1.597777777777777828e+03,1.642229843011735966e+03,1.686681908245694103e+03,1.731133973479652468e+03,1.775586038713610606e+03,1.820038103947568743e+03,1.864490169181526880e+03,1.917832647462276782e+03,1.941796982167352553e+03,1.965377229080932921e+03,1.992962962962963047e+03,2.025761316872428324e+03,2.064266117969822062e+03,2.104993141289437972e+03,2.144773662551440339e+03,2.181056241426611905e+03,2.213196159122084737e+03,2.240589849108367616e+03,2.262880658436214162e+03,2.280919067215363611e+03,2.300932784636488577e+03,2.328943758573388095e+03,2.368189300411522254e+03,2.412318244170096023e+03,2.455775034293552380e+03,2.494540466392318194e+03,2.532551440329218167e+03,2.573045267489711478e+03,2.619286694101509056e+03,2.672359396433470465e+03,2.733717421124828888e+03,2.806556927297668608e+03,2.892139917695473741e+03,2.992071330589849367e+03,3.098340192043895968e+03,3.198353909465020479e+03,3.265761316872427869e+03,3.283607681755829617e+03,3.246227709190672158e+03,3.178203017832647674e+03,3.111015089163237462e+03,3.072674897119341949e+03,3.070672153635116501e+03,3.090795610425240284e+03,3.108998628257887503e+03,3.108148148148148266e+03,3.089423868312757349e+03,3.071467764060356785e+03,3.063168724279835260e+03,3.075761316872428324e+03,3.102825788751714754e+03,3.138477366255143806e+03,3.164636488340192500e+03,3.176543209876543187e+03,3.179163237311385728e+03,3.178120713305898789e+03,3.172544581618656139e+03,3.158875171467764631e+03,3.143480795610425048e+03,3.129564471879286430e+03,3.124583333333333485e+03,3.119259259259259125e+03
2.789643347050754528e+03,2.777105624142661327e+03,2.674691358024691453e+03,2.510617283950617093e+03,2.341426611796982343e+03,2.210178326474623191e+03,2.128326474622770547e+03,2.081646090534979521e+03,2.052427983539094384e+03,2.026227709190672158e+03,1.997997256515774779e+03,1.965884773662551424e+03,1.933703703703703468e+03,1.904060356652948940e+03,1.880233196159121690e+03,1.859698216735253482e+03,1.839547325102880677e+03,1.816351165980795486e+03,1.791947873799725812e+03,1.768930041152263357e+03,1.750246913580246655e+03,1.735637860082304769e+03,1.724554183813443387e+03,1.716515775034293483e+03,1.711412894375857377e+03,1.707626886145405024e+03,1.703223593964334896e+03,1.696858710562414672e+03,1.689547325102880677e+03,1.682126200274348548e+03,1.674993141289437517e+03,1.667777777777777828e+03,1.660493827160493993e+03,1.654087791495198871e+03,1.648724279835390917e+03,1.644197530864197461e+03,1.639300411522633794e+03,1.633964334705075544e+03,1.628518518518518704e+03,1.623401920438957632e+03,1.617800640146319438e+03,1.612199359853681017e+03,1.606598079561042596e+03,1.600996799268404402e+03,1.595395518975766208e+03,1.589794238683127787e+03,1.589794238683127787e+03,1.589794238683127787e+03,1.589794238683127787e+03,1.589794238683127787e+03,1.589794238683127787e+03,1.589794238683127787e+03,1.589794238683127787e+03,1.589794238683127787e+03,1.589794238683127787e+03,1.589794238683127787e+03,1.589794238683127787e+03,1.629961515012955488e+03,1.670128791342783188e+03,1.710296067672611116e+03,1.750463344002438816e+03,1.790630620332266517e+03,1.830797896662094217e+03,1.878998628257887503e+03,1.897133058984911031e+03,1.914403292181069673e+03,1.933004115226337490e+03,1.957572016460905161e+03,1.990178326474622736e+03,2.029368998628257941e+03,2.074005486968449986e+03,2.119986282578875034e+03,2.164636488340192500e+03,2.201179698216734778e+03,2.225733882030178847e+03,2.238875171467764176e+03,2.246584362139917630e+03,2.262565157750342678e+03,2.294128943758573769e+03,2.343607681755829617e+03,2.398024691358024938e+03,2.449204389574759716e+03,2.491303155006858560e+03,2.530781893004115318e+03,2.571920438957476108e+03,2.619657064471879494e+03,2.675075445816186857e+03,2.739766803840878310e+03,2.817229080932784655e+03,2.908737997256515882e+03,3.015089163237311368e+03,3.126447187928669337e+03,3.230054869684499408e+03,3.302304526748971057e+03,3.327215363511659689e+03,3.295596707818929644e+03,3.223401920438957404e+03,3.139478737997256758e+03,3.076145404663923273e+03,3.051248285322359607e+03,3.055706447187928916e+03,3.068587105624143078e+03,3.073086419753086375e+03,3.069492455418381269e+03,3.067709190672153454e+03,3.066172839506172750e+03,3.072016460905349504e+03,3.086803840877914809e+03,3.115500685871056248e+03,3.144046639231824884e+03,3.164526748971193228e+03,3.176817558299040229e+03,3.184471879286694275e+03,3.184972565157750978e+03,3.172990397805212069e+03,3.156032235939643215e+03,3.138000685871056248e+03,3.131250000000000000e+03,3.123333333333333485e+03
2.856323731138545554e+03,2.838792866941015291e+03,2.737572016460905616e+03,2.576076817558299354e+03,2.404869684499314189e+03,2.264156378600823246e+03,2.167942386831275599e+03,2.106241426611797124e+03,2.063607681755829617e+03,2.026927297668038364e+03,1.990411522633744426e+03,1.953223593964334896e+03,1.918559670781892919e+03,1.889135802469135797e+03,1.866474622770918813e+03,1.847626886145404569e+03,1.829272976680383863e+03,1.807997256515775234e+03,1.785363511659807955e+03,1.763511659807955994e+03,1.745500685871056248e+03,1.730960219478738054e+03,1.719533607681755939e+03,1.710823045267489761e+03,1.705418381344307591e+03,1.702304526748971284e+03,1.699657064471879266e+03,1.695336076817558251e+03,1.689204389574760171e+03,1.681577503429355147e+03,1.672935528120713116e+03,1.663978052126200282e+03,1.655322359396433512e+03,1.648587105624142623e+03,1.643443072702332074e+03,1.639588477366255120e+03,1.635061728395061664e+03,1.629862825788751707e+03,1.623923182441700874e+03,1.617327389117512439e+03,1.610731595793324232e+03,1.604135802469135797e+03,1.597540009144947362e+03,1.590944215820759155e+03,1.584348422496570720e+03,1.584348422496570720e+03,1.584348422496570720e+03,1.584348422496570720e+03,1.584348422496570720e+03,1.584348422496570720e+03,1.584348422496570720e+03,1.584348422496570720e+03,1.584348422496570720e+03,1.584348422496570720e+03,1.584348422496570720e+03,1.584348422496570720e+03,1.622099908550525925e+03,1.659851394604481129e+03,1.697602880658436334e+03,1.735354366712391311e+03,1.773105852766346516e+03,1.810857338820301720e+03,1.856159122085048011e+03,1.870411522633744880e+03,1.883045267489712160e+03,1.895967078189300537e+03,1.912427983539094384e+03,1.935459533607681806e+03,1.966213991769547420e+03,2.001220850480110130e+03,2.041810699588477746e+03,2.084320987654321016e+03,2.126803840877914809e+03,2.160164609053497770e+03,2.180411522633744880e+03,2.191344307270233458e+03,2.201193415637860198e+03,2.225267489711934104e+03,2.266941015089163102e+03,2.326008230452674979e+03,2.386652949245541549e+03,2.441385459533607445e+03,2.485555555555555657e+03,2.527270233196159097e+03,2.571481481481481751e+03,2.622921810699588605e+03,2.682469135802469282e+03,2.751056241426611450e+03,2.832071330589849367e+03,2.925514403292181214e+03,3.031481481481480841e+03,3.140713305898490944e+03,3.242647462277092018e+03,3.317805212620027305e+03,3.349272976680384090e+03,3.323456790123456813e+03,3.247105624142661327e+03,3.148203017832647674e+03,3.065404663923181943e+03,3.026721536351165923e+03,3.026419753086420315e+03,3.042880658436214162e+03,3.057640603566529535e+03,3.070205761316872213e+03,3.082949245541838536e+03,3.086131687242797852e+03,3.081700960219478930e+03,3.079108367626885865e+03,3.094499314128943752e+03,3.121042524005486939e+03,3.148683127572016929e+03,3.171152263374485756e+03,3.189588477366255120e+03,3.200699588477366433e+03,3.198820301783265222e+03,3.188930041152263129e+03,3.174636488340192500e+03,3.168888888888889142e+03,3.161481481481481751e+03
2.912510288065843724e+03,2.888010973936899518e+03,2.790096021947873851e+03,2.633964334705075089e+03,2.462304526748971057e+03,2.311646090534979521e+03,2.199684499314129425e+03,2.122153635116597798e+03,2.067297668038408574e+03,2.022661179698216756e+03,1.980658436213991990e+03,1.939149519890260535e+03,1.900877914951988942e+03,1.869108367626885865e+03,1.845816186556927278e+03,1.827914951989025894e+03,1.811920438957475881e+03,1.793717421124828434e+03,1.774197530864197461e+03,1.754677640603566488e+03,1.738010973936899745e+03,1.723950617283950805e+03,1.712496570644718986e+03,1.703648834019204514e+03,1.698834019204389733e+03,1.697695473251028943e+03,1.698175582990397743e+03,1.696803840877915036e+03,1.692126200274348548e+03,1.684320987654321016e+03,1.674471879286694048e+03,1.664279835390946573e+03,1.654650205761317011e+03,1.647421124828532356e+03,1.641906721536351142e+03,1.637805212620027532e+03,1.633017832647462455e+03,1.624471879286694275e+03,1.615925925925926094e+03,1.607379972565157914e+03,1.598834019204389733e+03,1.590288065843621553e+03,1.581742112482853372e+03,1.581742112482853372e+03,1.581742112482853372e+03,1.581742112482853372e+03,1.581742112482853372e+03,1.581742112482853372e+03,1.581742112482853372e+03,1.581742112482853372e+03,1.581742112482853372e+03,1.581742112482853372e+03,1.581742112482853372e+03,1.581742112482853372e+03,1.612045864451557463e+03,1.642349616420261327e+03,1.672653368388965191e+03,1.702957120357669282e+03,1.733260872326373374e+03,1.763564624295077238e+03,1.799929126657521920e+03,1.843566529492455629e+03,1.855308641975308547e+03,1.866639231824417038e+03,1.878148148148148039e+03,1.891330589849108037e+03,1.908614540466392327e+03,1.932194787379972240e+03,1.961220850480109675e+03,1.991220850480109675e+03,2.022757201646090380e+03,2.053772290809327842e+03,2.084403292181069901e+03,2.108971193415637572e+03,2.126035665294924456e+03,2.141755829903978338e+03,2.162853223593964685e+03,2.200685871056241467e+03,2.253347050754457996e+03,2.318106995884773823e+03,2.380850480109739237e+03,2.436323731138546464e+03,2.482592592592592609e+03,2.527585733882030127e+03,2.576433470507544371e+03,2.632030178326474925e+03,2.694238683127572131e+03,2.762908093278463639e+03,2.841687242798353964e+03,2.930576131687242651e+03,3.029698216735253482e+03,3.131646090534979521e+03,3.228792866941014836e+03,3.305994513031550468e+03,3.345281207133059070e+03,3.327818930041152271e+03,3.252482853223593793e+03,3.147338820301783471e+03,3.059341563786008010e+03,3.023401920438956950e+03,3.032345679012345499e+03,3.057434842249657322e+03,3.077475994513031310e+03,3.095157750342935742e+03,3.112647462277092018e+03,3.117366255144032493e+03,3.103854595336076727e+03,3.084156378600823246e+03,3.081385459533606991e+03,3.098916323731138618e+03,3.127338820301783471e+03,3.155761316872428324e+03,3.182304526748971057e+03,3.204266117969821607e+03,3.217983539094650496e+03,3.222880658436214162e+03,3.221289437585734049e+03,3.220000000000000000e+03,3.217407407407407391e+03
2.957105624142661327e+03,2.925733882030178393e+03,2.832565157750342678e+03,2.682537722908093201e+03,2.510384087791494949e+03,2.347750342935527897e+03,2.217887517146775735e+03,2.124375857338820424e+03,2.060685871056241922e+03,2.013292181069958588e+03,1.970823045267489761e+03,1.927407407407407163e+03,1.885816186556927278e+03,1.850809327846365022e+03,1.826735253772290889e+03,1.810356652949245472e+03,1.797064471879286884e+03,1.781138545953360563e+03,1.763058984910836898e+03,1.744471879286694275e+03,1.728491083676269000e+03,1.715034293552811960e+03,1.703950617283950805e+03,1.695541838134430691e+03,1.691632373113854555e+03,1.692674897119341495e+03,1.696282578875171566e+03,1.698257887517146628e+03,1.695651577503429280e+03,1.688573388203017657e+03,1.678395061728395149e+03,1.667777777777777601e+03,1.657818930041152271e+03,1.650219478737997406e+03,1.643991769547325248e+03,1.633463648834019295e+03,1.622935528120713343e+03,1.612407407407407391e+03,1.601879286694101665e+03,1.591351165980795713e+03,1.580823045267489761e+03,1.580823045267489761e+03,1.580823045267489761e+03,1.580823045267489761e+03,1.580823045267489761e+03,1.580823045267489761e+03,1.580823045267489761e+03,1.580823045267489761e+03,1.580823045267489761e+03,1.580823045267489761e+03,1.580823045267489761e+03,1.580823045267489761e+03,1.608603998374231651e+03,1.636384951480973541e+03,1.664165904587715431e+03,1.691946857694457094e+03,1.719727810801198984e+03,1.747508763907940875e+03,1.780845907636031143e+03,1.820850480109739465e+03,1.835253772290809593e+03,1.845596707818930327e+03,1.855500685871056476e+03,1.867270233196159097e+03,1.881426611796982343e+03,1.897709190672153454e+03,1.916186556927297488e+03,1.939835390946502002e+03,1.967517146776405980e+03,1.995788751714677801e+03,2.021893004115226177e+03,2.043689986282578730e+03,2.062359396433470465e+03,2.077475994513031310e+03,2.091742112482853372e+03,2.111755829903978338e+03,2.142126200274348321e+03,2.189368998628257486e+03,2.250370370370370438e+03,2.320699588477365978e+03,2.387585733882030127e+03,2.443923182441701101e+03,2.489149519890260763e+03,2.531879286694101665e+03,2.580576131687242651e+03,2.637489711934156276e+03,2.700452674897119323e+03,2.766419753086419860e+03,2.838573388203018112e+03,2.918285322359396105e+03,3.006927297668038591e+03,3.099026063100137435e+03,3.189039780521261491e+03,3.265816186556927278e+03,3.312661179698216529e+03,3.307805212620027305e+03,3.242578875171467644e+03,3.142345679012345499e+03,3.059245541838134159e+03,3.034677640603566488e+03,3.059835390946501775e+03,3.097119341563786293e+03,3.119327846364883499e+03,3.132784636488340311e+03,3.145624142661179576e+03,3.148203017832647674e+03,3.128120713305898335e+03,3.093566529492455629e+03,3.070699588477365978e+03,3.073936899862825612e+03,3.099135802469135342e+03,3.131673525377228998e+03,3.164814814814815236e+03,3.194670781893004005e+03,3.221604938271605079e+03,3.240531550068586967e+03,3.253556241426611450e+03,3.257731481481481751e+03,3.261851851851851734e+03
2.977009602194787931e+03,2.944869684499314189e+03,2.859561042524005188e+03,2.716268861454047055e+03,2.544403292181069901e+03,2.371577503429355602e+03,2.225802469135802312e+03,2.117928669410151088e+03,2.047668038408778784e+03,2.000603566529492355e+03,1.961152263374485756e+03,1.918710562414266178e+03,1.876652949245541549e+03,1.841412894375857604e+03,1.819341563786008237e+03,1.805596707818930327e+03,1.793607681755829844e+03,1.776899862825788887e+03,1.757037037037037408e+03,1.737503429355281241e+03,1.721687242798353964e+03,1.709204389574760171e+03,1.698655692729766997e+03,1.690096021947873851e+03,1.685390946502057659e+03,1.686364883401920224e+03,1.691083676268861382e+03,1.695555555555555657e+03,1.695486968449931510e+03,1.690411522633744880e+03,1.681234567901234414e+03,1.670987654320987531e+03,1.660973936899862792e+03,1.652908093278463639e+03,1.645925925925925867e+03,1.635016003657978899e+03,1.624106081390031932e+03,1.613196159122085191e+03,1.602286236854138224e+03,1.591376314586191256e+03,1.580466392318244289e+03,1.580466392318244289e+03,1.580466392318244289e+03,1.580466392318244289e+03,1.580466392318244289e+03,1.580466392318244289e+03,1.580466392318244289e+03,1.580466392318244289e+03,1.580466392318244289e+03,1.580466392318244289e+03,1.580466392318244289e+03,1.580466392318244289e+03,1.614206675811614105e+03,1.647946959304984148e+03,1.681687242798353964e+03,1.715427526291723780e+03,1.749167809785093823e+03,1.782908093278463639e+03,1.802085048010973878e+03,1.819437585733882088e+03,1.834005486968449986e+03,1.845418381344307136e+03,1.857215363511659689e+03,1.872784636488339856e+03,1.891412894375857149e+03,1.911975308641975289e+03,1.931893004115226177e+03,1.955967078189300537e+03,1.983580246913580368e+03,2.013813443072702512e+03,2.040548696844993401e+03,2.060480109739369254e+03,2.073923182441701101e+03,2.083470507544581324e+03,2.095102880658436334e+03,2.114636488340192045e+03,2.146776406035665332e+03,2.195336076817558478e+03,2.259780521262002821e+03,2.334567901234567671e+03,2.407283950617284063e+03,2.466694101508915992e+03,2.511001371742112042e+03,2.548353909465020479e+03,2.590493827160493765e+03,2.641714677640603895e+03,2.699355281207132975e+03,2.758587105624143078e+03,2.821097393689985893e+03,2.890192043895747247e+03,2.968367626886144990e+03,3.051618655692729590e+03,3.134855967078189224e+03,3.209945130315501046e+03,3.263580246913580140e+03,3.273580246913580140e+03,3.224759945130315828e+03,3.135829903978052243e+03,3.059259259259259579e+03,3.042400548696844908e+03,3.078984910836762538e+03,3.127229080932784200e+03,3.153155006858710749e+03,3.163168724279835260e+03,3.170507544581619186e+03,3.170960219478738054e+03,3.148203017832647674e+03,3.103978052126200510e+03,3.063689986282578957e+03,3.051440329218106854e+03,3.070932784636488577e+03,3.106323731138546009e+03,3.143854595336076727e+03,3.177119341563786293e+03,3.209986282578875034e+03,3.236831275720164740e+03,3.260137174211247839e+03,3.268518518518518249e+03,3.278148148148147811e+03
2.960438957475994357e+03,2.930493827160493765e+03,2.855102880658435879e+03,2.722030178326474925e+03,2.556872427983539183e+03,2.382702331961590971e+03,2.228285322359396559e+03,2.109163237311385274e+03,2.032030178326474697e+03,1.984417009602194412e+03,1.948326474622770775e+03,1.909876543209876672e+03,1.871865569272976700e+03,1.841618655692729817e+03,1.824581618655692409e+03,1.814183813443072495e+03,1.801947873799725812e+03,1.782400548696845135e+03,1.758710562414266178e+03,1.736502057613168745e+03,1.719533607681755711e+03,1.707229080932784655e+03,1.696886145404664148e+03,1.687791495198902567e+03,1.681179698216735233e+03,1.679862825788751479e+03,1.682921810699588377e+03,1.687613168724279831e+03,1.689149519890260535e+03,1.686227709190672158e+03,1.678696844993141212e+03,1.669368998628257941e+03,1.659794238683127560e+03,1.651742112482853145e+03,1.644650205761317011e+03,1.633923182441701101e+03,1.623196159122085191e+03,1.612469135802469282e+03,1.601742112482853145e+03,1.591015089163237235e+03,1.580288065843621325e+03,1.580288065843621325e+03,1.580288065843621325e+03,1.580288065843621325e+03,1.580288065843621325e+03,1.580288065843621325e+03,1.580288065843621325e+03,1.580288065843621325e+03,1.580288065843621325e+03,1.580288065843621325e+03,1.580288065843621325e+03,1.580288065843621325e+03,1.613948331047096417e+03,1.647608596250571509e+03,1.681268861454046601e+03,1.714929126657521692e+03,1.748589391860996784e+03,1.782249657064471876e+03,1.800178326474622736e+03,1.816803840877915036e+03,1.833086419753086830e+03,1.848532235939643442e+03,1.864060356652948940e+03,1.882990397805212524e+03,1.904293552812071312e+03,1.928093278463648858e+03,1.950589849108367616e+03,1.976529492455418222e+03,2.005651577503429280e+03,2.039135802469135342e+03,2.071015089163237462e+03,2.096488340192044234e+03,2.113196159122084737e+03,2.122249657064472103e+03,2.131165980795610267e+03,2.146515775034293256e+03,2.175651577503429507e+03,2.222030178326474470e+03,2.287133058984911258e+03,2.364622770919067534e+03,2.441865569272976700e+03,2.504595336076817148e+03,2.547750342935528352e+03,2.577626886145404569e+03,2.607160493827160735e+03,2.645486968449931283e+03,2.692496570644718759e+03,2.744513031550068263e+03,2.800233196159122144e+03,2.862400548696844908e+03,2.932510288065843270e+03,3.007969821673525075e+03,3.083909465020576135e+03,3.154403292181069901e+03,3.208449931412894330e+03,3.226200274348422226e+03,3.189903978052126149e+03,3.113662551440329480e+03,3.045185185185184764e+03,3.033443072702331847e+03,3.075404663923182397e+03,3.131755829903977883e+03,3.164430727023319832e+03,3.176008230452674979e+03,3.179835390946502230e+03,3.176419753086419860e+03,3.151152263374485756e+03,3.101591220850479658e+03,3.051769547325102394e+03,3.030123456790123328e+03,3.047023319615911987e+03,3.085733882030178393e+03,3.126419753086419860e+03,3.160144032921810776e+03,3.192222222222222626e+03,3.219962277091906799e+03,3.245264060356652863e+03,3.254861111111110858e+03,3.265555555555555202e+03
2.918683127572016474e+03,2.886419753086420315e+03,2.818408779149520342e+03,2.697695473251028488e+03,2.546433470507544371e+03,2.382565157750343133e+03,2.230932784636488577e+03,2.106721536351165923e+03,2.023031550068587421e+03,1.972373113854595431e+03,1.937942386831275826e+03,1.904211248285322654e+03,1.872318244170096023e+03,1.848888888888888459e+03,1.836556927297667698e+03,1.827530864197530718e+03,1.812853223593964231e+03,1.789849108367626741e+03,1.763113854595336079e+03,1.739149519890260535e+03,1.721275720164609083e+03,1.708724279835390917e+03,1.698353909465020706e+03,1.688655692729766770e+03,1.680233196159122144e+03,1.675953360768175799e+03,1.675884773662551424e+03,1.678381344307270410e+03,1.679355281207132975e+03,1.677187928669410212e+03,1.671234567901234868e+03,1.663484224965706289e+03,1.655281207133059070e+03,1.648010973936899973e+03,1.641371742112482934e+03,1.631065386374028321e+03,1.622476756591982848e+03,1.613888126809937376e+03,1.605299497027891903e+03,1.596710867245846657e+03,1.588122237463801184e+03,1.579533607681755711e+03,1.579533607681755711e+03,1.579533607681755711e+03,1.579533607681755711e+03,1.579533607681755711e+03,1.579533607681755711e+03,1.579533607681755711e+03,1.579533607681755711e+03,1.579533607681755711e+03,1.579533607681755711e+03,1.579533607681755711e+03,1.579533607681755711e+03,1.616888431641517855e+03,1.654243255601280225e+03,1.691598079561042368e+03,1.728952903520804512e+03,1.766307727480566882e+03,1.803662551440329025e+03,1.819807956104252298e+03,1.837297668038409029e+03,1.856707818930041412e+03,1.876186556927297488e+03,1.897599451303155092e+03,1.919780521262003049e+03,1.945061728395062119e+03,1.970644718792867025e+03,2.000123456790123782e+03,2.032277091906721353e+03,2.068779149519890325e+03,2.105308641975308547e+03,2.137791495198902339e+03,2.161289437585734049e+03,2.174636488340192500e+03,2.184115226337448348e+03,2.197791495198902339e+03,2.224183813443072722e+03,2.266008230452674979e+03,2.324677640603566033e+03,2.395980795610425048e+03,2.471742112482853372e+03,2.538806584362139802e+03,2.587146776406035315e+03,2.616433470507544371e+03,2.636145404663923273e+03,2.660178326474622281e+03,2.693909465020575681e+03,2.738134430727023755e+03,2.788587105624143078e+03,2.845432098765431874e+03,2.907366255144032493e+03,2.974320987654320561e+03,3.041824417009602257e+03,3.104087791495198871e+03,3.148875171467763721e+03,3.160644718792866570e+03,3.128545953360768181e+03,3.068875171467764176e+03,3.021193415637860653e+03,3.022345679012345499e+03,3.065912208504801129e+03,3.119753086419752435e+03,3.152812071330589333e+03,3.166227709190672613e+03,3.168696844993140985e+03,3.160919067215364066e+03,3.132825788751714299e+03,3.082688614540466006e+03,3.033100137174211341e+03,3.011783264746227815e+03,3.030356652949245927e+03,3.071577503429355147e+03,3.112071330589848912e+03,3.143662551440329480e+03,3.171495198902606262e+03,3.196790123456789843e+03,3.218834019204389733e+03,3.227592592592592609e+03,3.235925925925925640e+03
2.886735253772290889e+03,2.838093278463648858e+03,2.765857338820302175e+03,2.652208504801097661e+03,2.515582990397805133e+03,2.368532235939643215e+03,2.228806584362139802e+03,2.107091906721535906e+03,2.019725651577503413e+03,1.965445816186557067e+03,1.931550068587105670e+03,1.903004115226337717e+03,1.877297668038408574e+03,1.858696844993141440e+03,1.846652949245542004e+03,1.835144032921810549e+03,1.817050754458161919e+03,1.792510288065843724e+03,1.765733882030178393e+03,1.742057613168724174e+03,1.724046639231824429e+03,1.711069958847736643e+03,1.700713305898490944e+03,1.691138545953360563e+03,1.682304526748971284e+03,1.676200274348422454e+03,1.673086419753086375e+03,1.672167352537722763e+03,1.670836762688614726e+03,1.668120713305898562e+03,1.663539094650205698e+03,1.657983539094650041e+03,1.652002743484224993e+03,1.646021947873799490e+03,1.639890260631001183e+03,1.633347050754457996e+03,1.624218106995884682e+03,1.616610653863740254e+03,1.609003200731595825e+03,1.601395747599451170e+03,1.593788294467306741e+03,1.586180841335162313e+03,1.578573388203017885e+03,1.578573388203017885e+03,1.578573388203017885e+03,1.578573388203017885e+03,1.578573388203017885e+03,1.578573388203017885e+03,1.578573388203017885e+03,1.578573388203017885e+03,1.578573388203017885e+03,1.578573388203017885e+03,1.578573388203017885e+03,1.578573388203017885e+03,1.620690443529949789e+03,1.662807498856881693e+03,1.704924554183813598e+03,1.747041609510745275e+03,1.789158664837677179e+03,1.831275720164609083e+03,1.850589849108367616e+03,1.872524005486968690e+03,1.894320987654321243e+03,1.916872427983538955e+03,1.939341563786008464e+03,1.964417009602194867e+03,1.990946502057613088e+03,2.021481481481481296e+03,2.055267489711934104e+03,2.093950617283950578e+03,2.134540466392318194e+03,2.173607681755829617e+03,2.204252400548696642e+03,2.224019204389574952e+03,2.236529492455418222e+03,2.250041152263374443e+03,2.272030178326474925e+03,2.305432098765432329e+03,2.352661179698216529e+03,2.414046639231824429e+03,2.486941015089163102e+03,2.560178326474622736e+03,2.618971193415638027e+03,2.655048010973936925e+03,2.672263374485596614e+03,2.686447187928669337e+03,2.708710562414265951e+03,2.745089163237311368e+03,2.789135802469136252e+03,2.837709190672153454e+03,2.886488340192043779e+03,2.939780521262002367e+03,2.994252400548697551e+03,3.044211248285322199e+03,3.074499314128943752e+03,3.075925925925925640e+03,3.049862825788751707e+03,3.017503429355281241e+03,3.005692729766803495e+03,3.027558299039780195e+03,3.068038408779148995e+03,3.105363511659807955e+03,3.125898491083676163e+03,3.134019204389574952e+03,3.132702331961590971e+03,3.119684499314128971e+03,3.090041152263374897e+03,3.045665294924554473e+03,3.006282578875171566e+03,2.993813443072702739e+03,3.016886145404664148e+03,3.058902606310014107e+03,3.097091906721536361e+03,3.125541838134430236e+03,3.147791495198902339e+03,3.168360768175582962e+03,3.183408779149519887e+03,3.189722222222222172e+03,3.193333333333333485e+03
2.889053497942386912e+03,2.815967078189300082e+03,2.729890260631002093e+03,2.614444444444444343e+03,2.484375857338820424e+03,2.349780521262002821e+03,2.222853223593964231e+03,2.108491083676269227e+03,2.021111111111111086e+03,1.963689986282579184e+03,1.928449931412894330e+03,1.902729766803840903e+03,1.880562414266118139e+03,1.862976680384087558e+03,1.847914951989026122e+03,1.832263374485596842e+03,1.812085048010973878e+03,1.788669410150891736e+03,1.764814814814814781e+03,1.743758573388203104e+03,1.727270233196159097e+03,1.714787379972565304e+03,1.704869684499313962e+03,1.695802469135802539e+03,1.687434842249656867e+03,1.680685871056241467e+03,1.675555555555555657e+03,1.671522633744855966e+03,1.667530864197530718e+03,1.663703703703703695e+03,1.660109739368998589e+03,1.656556927297667926e+03,1.652455418381344316e+03,1.647242798353909620e+03,1.640932784636488350e+03,1.633717421124828434e+03,1.626474622770919268e+03,1.618225880201189057e+03,1.611351928059747024e+03,1.604477975918305219e+03,1.597604023776863414e+03,1.590730071635421382e+03,1.583856119493979349e+03,1.576982167352537545e+03,1.576982167352537545e+03,1.576982167352537545e+03,1.576982167352537545e+03,1.576982167352537545e+03,1.576982167352537545e+03,1.576982167352537545e+03,1.576982167352537545e+03,1.576982167352537545e+03,1.576982167352537545e+03,1.576982167352537545e+03,1.576982167352537545e+03,1.625208047553726374e+03,1.673433927754915203e+03,1.721659807956104032e+03,1.769885688157293089e+03,1.818111568358481918e+03,1.866337448559670747e+03,1.889862825788751479e+03,1.913209876543210157e+03,1.936982167352537772e+03,1.960699588477366206e+03,1.985445816186557067e+03,2.011234567901234414e+03,2.040164609053498452e+03,2.073388203017832893e+03,2.112908093278463639e+03,2.155884773662551652e+03,2.198230452674897151e+03,2.232290809327846546e+03,2.256049382716048967e+03,2.271673525377229453e+03,2.284266117969821153e+03,2.298065843621398926e+03,2.316598079561042596e+03,2.348230452674897151e+03,2.400315500685871029e+03,2.474540466392318649e+03,2.557997256515775007e+03,2.631207133058984709e+03,2.678696844993141440e+03,2.700233196159122144e+03,2.710000000000000000e+03,2.723100137174211341e+03,2.748559670781893146e+03,2.779588477366255574e+03,2.812071330589849367e+03,2.841879286694101665e+03,2.879396433470507873e+03,2.922057613168724401e+03,2.963539094650206152e+03,2.986941015089163557e+03,2.989725651577503868e+03,2.983401920438957404e+03,2.987654320987654501e+03,3.013415637860082370e+03,3.050534979423868663e+03,3.079149519890260763e+03,3.090027434842249477e+03,3.088930041152263584e+03,3.085816186556927278e+03,3.079423868312757349e+03,3.064430727023320287e+03,3.038751714677640848e+03,3.007023319615911987e+03,2.982784636488340311e+03,2.980301783264746518e+03,3.004348422496570493e+03,3.042441700960219805e+03,3.075843621399176754e+03,3.100411522633744426e+03,3.117654320987654501e+03,3.133182441700960226e+03,3.142263374485597069e+03,3.146296296296296987e+03,3.146666666666666515e+03
2.919917695473251115e+03,2.830109739368998362e+03,2.729272976680384090e+03,2.603950617283950578e+03,2.467887517146776190e+03,2.334705075445815964e+03,2.213936899862825612e+03,2.106735253772290889e+03,2.021056241426611678e+03,1.961646090534979749e+03,1.923786008230453035e+03,1.898971193415637799e+03,1.878340192043895968e+03,1.860123456790123782e+03,1.841604938271605079e+03,1.822784636488340311e+03,1.802866941015089424e+03,1.782496570644718759e+03,1.762812071330589788e+03,1.745144032921810776e+03,1.731042524005486939e+03,1.719821673525377264e+03,1.710658436213991763e+03,1.702112482853223810e+03,1.694197530864197461e+03,1.686982167352537545e+03,1.680260631001371621e+03,1.673758573388203104e+03,1.667668038408779239e+03,1.662908093278463639e+03,1.659821673525377037e+03,1.657338820301783016e+03,1.653978052126200282e+03,1.648641975308642031e+03,1.641673525377228998e+03,1.633786008230452580e+03,1.625994513031550241e+03,1.619026063100137208e+03,1.611687242798353964e+03,1.605571559213534556e+03,1.600475156226185163e+03,1.595378753238835543e+03,1.590282350251486150e+03,1.585185947264136757e+03,1.580089544276787137e+03,1.574993141289437744e+03,1.574993141289437744e+03,1.574993141289437744e+03,1.574993141289437744e+03,1.574993141289437744e+03,1.574993141289437744e+03,1.574993141289437744e+03,1.574993141289437744e+03,1.574993141289437744e+03,1.574993141289437744e+03,1.574993141289437744e+03,1.574993141289437744e+03,1.633532235939643442e+03,1.692071330589849140e+03,1.750610425240055065e+03,1.809149519890260763e+03,1.867688614540466460e+03,1.926227709190672158e+03,1.951659807956104487e+03,1.978353909465020706e+03,2.005048010973936925e+03,2.031015089163237462e+03,2.057187928669410212e+03,2.087462277091906799e+03,2.124773662551440339e+03,2.166968449931412579e+03,2.207599451303155092e+03,2.239574759945130154e+03,2.261248285322359152e+03,2.275555555555555202e+03,2.283086419753085920e+03,2.285953360768175571e+03,2.289519890260631200e+03,2.309314128943758533e+03,2.357160493827160735e+03,2.433758573388202876e+03,2.523319615912208519e+03,2.605089163237311823e+03,2.661330589849108037e+03,2.688765432098765814e+03,2.697009602194787476e+03,2.702469135802469737e+03,2.715651577503429507e+03,2.731961591220850551e+03,2.749108367626885865e+03,2.765994513031550014e+03,2.796364883401920451e+03,2.837805212620027305e+03,2.883991769547325021e+03,2.920123456790123782e+03,2.945555555555555657e+03,2.970576131687242651e+03,3.004252400548697096e+03,3.045692729766803950e+03,3.077064471879286430e+03,3.084307270233196050e+03,3.069643347050754528e+03,3.048779149519889870e+03,3.033786008230452808e+03,3.022208504801097661e+03,3.009972565157750523e+03,2.996515775034293711e+03,2.984595336076817603e+03,2.977366255144033403e+03,2.980246913580246655e+03,2.997133058984910804e+03,3.023799725651577319e+03,3.049231824417009193e+03,3.069423868312756895e+03,3.083072702331961409e+03,3.094211248285322199e+03,3.099327846364883953e+03,3.101666666666666515e+03,3.100740740740740875e+03
2.941028806584361973e+03,2.848683127572016474e+03,2.744444444444444343e+03,2.615486968449931737e+03,2.473072702331961864e+03,2.335486968449931283e+03,2.212455418381344316e+03,2.106488340192043324e+03,2.019931412894375853e+03,1.957750342935528352e+03,1.915240054869684855e+03,1.887736625514403158e+03,1.865871056241426686e+03,1.846872427983539410e+03,1.827956104252400564e+03,1.809780521262002821e+03,1.792784636488340311e+03,1.776145404663923273e+03,1.760192043895747702e+03,1.745569272976680395e+03,1.734087791495198871e+03,1.724869684499313962e+03,1.717078189300411623e+03,1.709094650205761354e+03,1.701330589849108264e+03,1.693305898491083781e+03,1.685157750342935287e+03,1.676625514403292073e+03,1.668806584362139802e+03,1.662798353909464822e+03,1.659122085048011058e+03,1.656323731138546009e+03,1.652647462277092018e+03,1.646886145404663921e+03,1.639533607681755939e+03,1.631481481481481524e+03,1.623621399176954810e+03,1.616652949245541777e+03,1.610754458161865614e+03,1.605788751714677574e+03,1.600352080475537150e+03,1.595821521109586911e+03,1.591290961743636444e+03,1.586760402377686205e+03,1.582229843011735966e+03,1.577699283645785499e+03,1.573168724279835260e+03,1.573168724279835260e+03,1.573168724279835260e+03,1.573168724279835260e+03,1.573168724279835260e+03,1.573168724279835260e+03,1.573168724279835260e+03,1.573168724279835260e+03,1.573168724279835260e+03,1.573168724279835260e+03,1.573168724279835260e+03,1.573168724279835260e+03,1.636941015089163102e+03,1.700713305898490944e+03,1.764485596707818786e+03,1.828257887517146855e+03,1.892030178326474697e+03,1.955802469135802539e+03,1.984650205761316784e+03,2.013772290809327842e+03,2.042551440329218167e+03,2.069945130315500592e+03,2.099917695473251115e+03,2.133895747599451170e+03,2.170027434842249477e+03,2.200507544581618731e+03,2.221591220850479658e+03,2.233539094650205698e+03,2.242249657064471648e+03,2.244636488340192045e+03,2.241454046639231819e+03,2.237846364883401748e+03,2.252331961591220534e+03,2.296762688614540366e+03,2.369080932784636389e+03,2.453264746227710020e+03,2.531399176954732411e+03,2.587860082304527168e+03,2.617860082304527168e+03,2.626117969821673796e+03,2.628148148148147811e+03,2.634499314128943752e+03,2.645541838134430236e+03,2.662510288065843724e+03,2.688285322359396105e+03,2.732757201646090380e+03,2.790521262002743242e+03,2.853072702331961409e+03,2.910493827160493765e+03,2.961495198902606262e+03,3.008998628257887049e+03,3.050562414266118139e+03,3.080713305898490944e+03,3.089588477366255120e+03,3.073923182441700646e+03,3.043456790123456813e+03,3.012222222222222172e+03,2.991385459533607445e+03,2.979259259259259579e+03,2.976063100137174388e+03,2.981097393689986802e+03,2.992002743484224993e+03,3.000946502057613088e+03,3.005102880658436334e+03,3.009204389574759716e+03,3.017914951989025667e+03,3.030150891632372804e+03,3.042585733882030127e+03,3.052620027434842541e+03,3.060435528120713570e+03,3.064557613168724401e+03,3.066250000000000000e+03,3.066296296296296077e+03
2.933950617283950578e+03,2.844252400548697096e+03,2.744924554183813143e+03,2.621783264746227360e+03,2.480521262002743242e+03,2.340164609053498225e+03,2.210713305898490944e+03,2.100768175582990352e+03,2.011591220850480340e+03,1.948299039780521298e+03,1.903223593964334896e+03,1.873100137174211113e+03,1.849615912208505051e+03,1.831028806584362201e+03,1.814417009602194867e+03,1.799341563786008010e+03,1.785665294924554473e+03,1.771714677640603441e+03,1.757736625514403386e+03,1.744622770919067079e+03,1.734663923182441977e+03,1.727037037037037408e+03,1.720754458161865614e+03,1.713676268861453991e+03,1.706337448559670747e+03,1.697791495198902567e+03,1.688587105624142851e+03,1.678463648834019295e+03,1.669122085048011058e+03,1.661632373113854555e+03,1.656680384087791481e+03,1.652812071330589788e+03,1.648422496570644853e+03,1.642331961591220761e+03,1.635075445816186630e+03,1.627462277091906799e+03,1.620219478737997179e+03,1.613799725651577774e+03,1.608285322359396559e+03,1.603580246913580368e+03,1.599108367626886093e+03,1.594561042524005416e+03,1.590013717421124738e+03,1.585466392318244061e+03,1.580919067215363384e+03,1.576371742112482707e+03,1.571824417009602030e+03,1.571824417009602030e+03,1.571824417009602030e+03,1.571824417009602030e+03,1.571824417009602030e+03,1.571824417009602030e+03,1.571824417009602030e+03,1.571824417009602030e+03,1.571824417009602030e+03,1.571824417009602030e+03,1.571824417009602030e+03,1.571824417009602030e+03,1.634773662551440111e+03,1.697722908093278193e+03,1.760672153635116501e+03,1.823621399176954583e+03,1.886570644718792664e+03,1.949519890260630746e+03,1.979958847736625330e+03,2.010919067215363611e+03,2.042455418381344089e+03,2.072770919067215345e+03,2.104458161865569309e+03,2.135514403292180759e+03,2.162469135802468827e+03,2.177681755829903977e+03,2.182976680384087558e+03,2.182277091906721580e+03,2.184362139917695458e+03,2.185006858710562028e+03,2.185747599451302904e+03,2.189849108367627196e+03,2.210109739368998362e+03,2.250973936899863020e+03,2.307270233196159552e+03,2.369574759945130154e+03,2.428477366255143806e+03,2.475020576131686994e+03,2.503882030178325749e+03,2.516803840877914809e+03,2.525802469135802312e+03,2.539739368998628379e+03,2.562990397805212069e+03,2.599355281207132975e+03,2.653278463648834077e+03,2.724718792866940930e+03,2.804005486968449986e+03,2.881275720164609083e+03,2.953401920438957404e+03,3.017640603566529535e+03,3.068134430727023300e+03,3.096200274348422226e+03,3.098422496570644853e+03,3.079807956104252298e+03,3.046076817558298444e+03,3.010301783264746064e+03,2.979588477366255120e+03,2.963141289437585783e+03,2.959753086419752890e+03,2.973017832647462455e+03,2.999958847736625103e+03,3.033305898491083553e+03,3.057229080932784200e+03,3.063374485596707473e+03,3.056117969821673341e+03,3.046008230452674979e+03,3.040672153635116956e+03,3.039561042524006098e+03,3.040823045267489761e+03,3.042064471879286884e+03,3.042942386831275599e+03,3.043240740740740875e+03,3.043333333333333485e+03
2.914348422496570493e+03,2.813566529492455629e+03,2.713305898491084008e+03,2.600932784636488577e+03,2.471934156378601074e+03,2.336694101508916447e+03,2.203031550068587876e+03,2.087736625514402931e+03,1.996378600823045417e+03,1.934170096021947984e+03,1.889382716049382907e+03,1.857434842249657095e+03,1.832537722908093428e+03,1.815267489711934331e+03,1.802661179698216756e+03,1.791700960219478702e+03,1.780438957475994584e+03,1.767599451303154865e+03,1.754170096021947984e+03,1.741728395061728406e+03,1.732510288065843952e+03,1.725802469135802539e+03,1.720631001371742286e+03,1.714636488340192045e+03,1.708408779149519887e+03,1.700534979423868208e+03,1.691508916323731000e+03,1.680891632373113907e+03,1.670699588477366206e+03,1.662016460905349732e+03,1.655610425240055065e+03,1.650315500685871257e+03,1.644924554183813370e+03,1.638463648834019295e+03,1.631330589849108492e+03,1.624101508916323837e+03,1.617366255144032948e+03,1.611399176954732411e+03,1.606227709190672158e+03,1.601742112482853372e+03,1.597407407407407391e+03,1.593013260173754134e+03,1.588619112940100649e+03,1.584224965706447165e+03,1.579830818472793908e+03,1.575436671239140651e+03,1.571042524005487167e+03,1.571042524005487167e+03,1.571042524005487167e+03,1.571042524005487167e+03,1.571042524005487167e+03,1.571042524005487167e+03,1.571042524005487167e+03,1.571042524005487167e+03,1.571042524005487167e+03,1.571042524005487167e+03,1.571042524005487167e+03,1.571042524005487167e+03,1.631856424325560283e+03,1.692670324645633400e+03,1.753484224965706517e+03,1.814298125285779633e+03,1.875112025605852750e+03,1.935925925925925867e+03,1.966735253772290889e+03,1.997352537722907982e+03,2.030137174211248066e+03,2.063744855967077910e+03,2.098381344307269956e+03,2.126721536351165923e+03,2.142482853223593793e+03,2.140781893004115318e+03,2.131426611796981888e+03,2.123456790123456813e+03,2.126268861454046601e+03,2.133895747599451624e+03,2.147599451303154638e+03,2.167750342935528352e+03,2.199245541838134159e+03,2.238257887517147083e+03,2.278106995884773823e+03,2.316241426611797124e+03,2.351659807956104032e+03,2.383827160493827250e+03,2.410507544581618731e+03,2.433347050754457996e+03,2.457942386831275599e+03,2.488353909465020479e+03,2.529725651577503413e+03,2.587626886145404569e+03,2.666241426611797124e+03,2.756817558299039774e+03,2.846076817558298899e+03,2.924156378600822791e+03,2.993511659807956221e+03,3.053141289437585328e+03,3.092702331961591426e+03,3.102126200274348321e+03,3.080000000000000000e+03,3.043470507544581778e+03,3.003415637860081915e+03,2.974128943758573314e+03,2.956680384087791481e+03,2.958600823045267134e+03,2.976241426611797124e+03,3.010850480109738783e+03,3.054897119341563666e+03,3.102373113854595431e+03,3.137695473251028943e+03,3.152002743484224538e+03,3.143662551440329480e+03,3.122126200274348321e+03,3.098216735253772640e+03,3.076790123456789843e+03,3.060054869684499408e+03,3.047674897119341495e+03,3.039979423868312551e+03,3.037129629629629562e+03,3.035185185185184764e+03
2.915802469135802767e+03,2.789135802469135342e+03,2.671865569272976700e+03,2.559423868312757349e+03,2.440123456790123328e+03,2.312565157750342678e+03,2.179437585733882315e+03,2.063072702331961409e+03,1.974115226337448576e+03,1.916803840877915036e+03,1.875953360768175799e+03,1.844965706447187813e+03,1.821152263374485301e+03,1.806927297668038364e+03,1.798518518518518476e+03,1.790356652949245472e+03,1.779231824417009648e+03,1.765637860082304542e+03,1.751783264746227815e+03,1.739451303155006826e+03,1.730041152263374670e+03,1.722784636488340311e+03,1.717297668038409029e+03,1.711742112482853372e+03,1.706694101508916219e+03,1.700315500685871257e+03,1.692606310013717348e+03,1.682921810699588605e+03,1.673127572016461045e+03,1.664211248285322199e+03,1.656831275720164740e+03,1.650219478737997179e+03,1.643662551440329480e+03,1.636598079561042596e+03,1.629355281207133203e+03,1.622331961591220988e+03,1.615925925925926094e+03,1.610233196159122144e+03,1.605185185185185219e+03,1.600699588477366433e+03,1.596337448559670520e+03,1.592053040695015852e+03,1.587768632830360957e+03,1.583484224965706289e+03,1.579199817101051622e+03,1.574915409236396727e+03,1.570631001371742059e+03,1.570631001371742059e+03,1.570631001371742059e+03,1.570631001371742059e+03,1.570631001371742059e+03,1.570631001371742059e+03,1.570631001371742059e+03,1.570631001371742059e+03,1.570631001371742059e+03,1.570631001371742059e+03,1.570631001371742059e+03,1.570631001371742059e+03,1.628838591678097828e+03,1.687046181984453369e+03,1.745253772290809138e+03,1.803461362597164907e+03,1.861668952903520449e+03,1.919876543209876218e+03,1.951536351165980705e+03,1.981604938271605079e+03,2.013676268861453991e+03,2.046995884773662510e+03,2.080329218106995540e+03,2.103045267489711478e+03,2.108573388203017657e+03,2.097297668038409029e+03,2.086159122085047784e+03,2.085651577503429053e+03,2.100192043895747702e+03,2.120137174211248293e+03,2.146433470507544826e+03,2.179849108367626741e+03,2.220864197530864658e+03,2.261275720164609083e+03,2.292990397805212524e+03,2.317160493827160735e+03,2.337174211248285701e+03,2.360370370370370438e+03,2.388353909465020479e+03,2.423196159122085191e+03,2.461234567901234641e+03,2.500576131687243105e+03,2.544883401920439155e+03,2.603552812071330663e+03,2.681508916323731228e+03,2.768134430727023300e+03,2.849602194787380085e+03,2.918408779149519887e+03,2.979615912208505051e+03,3.032249657064471648e+03,3.062510288065843270e+03,3.059561042524005643e+03,3.024499314128943752e+03,2.982565157750343133e+03,2.949286694101508601e+03,2.940013717421124966e+03,2.951728395061728406e+03,2.986570644718793119e+03,3.033360768175583416e+03,3.087242798353909166e+03,3.138834019204389733e+03,3.190891632373114135e+03,3.234430727023319378e+03,3.263333333333333485e+03,3.264924554183813143e+03,3.242126200274348321e+03,3.202304526748971057e+03,3.156982167352538454e+03,3.114032921810699918e+03,3.080980795610425048e+03,3.058744855967078365e+03,3.050833333333333485e+03,3.044444444444443889e+03
2.933401920438956950e+03,2.778326474622770547e+03,2.635610425240054610e+03,2.512729766803840903e+03,2.396886145404663694e+03,2.276995884773662510e+03,2.149629629629629562e+03,2.037997256515774779e+03,1.955720164609053427e+03,1.904732510288066123e+03,1.868230452674896924e+03,1.838669410150891508e+03,1.816502057613168745e+03,1.804924554183813370e+03,1.799108367626886320e+03,1.791810699588477291e+03,1.779643347050754528e+03,1.765198902606309957e+03,1.751947873799725585e+03,1.740946502057613088e+03,1.731920438957476108e+03,1.723374485596707927e+03,1.715843621399176982e+03,1.708792866941015063e+03,1.703278463648833849e+03,1.697544581618655684e+03,1.691111111111111086e+03,1.683127572016461045e+03,1.674828532235939747e+03,1.666721536351165923e+03,1.659039780521262173e+03,1.651467764060356558e+03,1.643909465020576135e+03,1.636378600823045417e+03,1.628998628257887503e+03,1.621920438957476108e+03,1.615322359396433285e+03,1.609410150891632384e+03,1.604211248285322199e+03,1.599711934156378447e+03,1.595445816186557067e+03,1.591266575217192667e+03,1.587087334247828039e+03,1.582908093278463639e+03,1.578728852309099238e+03,1.574549611339734611e+03,1.570370370370370210e+03,1.570370370370370210e+03,1.570370370370370210e+03,1.570370370370370210e+03,1.570370370370370210e+03,1.570370370370370210e+03,1.570370370370370210e+03,1.570370370370370210e+03,1.570370370370370210e+03,1.570370370370370210e+03,1.570370370370370210e+03,1.570370370370370210e+03,1.626188843164151649e+03,1.682007315957933088e+03,1.737825788751714754e+03,1.793644261545496192e+03,1.849462734339277631e+03,1.905281207133059070e+03,1.936982167352537772e+03,1.966625514403292300e+03,1.998175582990397970e+03,2.029574759945130381e+03,2.057599451303155092e+03,2.071015089163237462e+03,2.067832647462277237e+03,2.056941015089163102e+03,2.059012345679012014e+03,2.080850480109739237e+03,2.116666666666666515e+03,2.151467764060356785e+03,2.184663923182442431e+03,2.219958847736625103e+03,2.260781893004115773e+03,2.302386831275720397e+03,2.337283950617284063e+03,2.364801097393689815e+03,2.386049382716049422e+03,2.411618655692729590e+03,2.444663923182441522e+03,2.485610425240055520e+03,2.521714677640603441e+03,2.547928669410151088e+03,2.570178326474622736e+03,2.605116598079561300e+03,2.660521262002743242e+03,2.727229080932784655e+03,2.792112482853223355e+03,2.848984910836762538e+03,2.902469135802468827e+03,2.949643347050754528e+03,2.976255144032921635e+03,2.972770919067215800e+03,2.943758573388202876e+03,2.916735253772290889e+03,2.908120713305897880e+03,2.931879286694101211e+03,2.982208504801097206e+03,3.053799725651577319e+03,3.126666666666666515e+03,3.189382716049382452e+03,3.236748971193415855e+03,3.284252400548696642e+03,3.333086419753086375e+03,3.378751714677640393e+03,3.396172839506173204e+03,3.379108367626886320e+03,3.327462277091906799e+03,3.259080932784636389e+03,3.187517146776406207e+03,3.131934156378600619e+03,3.093689986282578957e+03,3.080555555555555202e+03,3.069259259259259125e+03
2.933539094650206152e+03,2.764362139917695458e+03,2.606447187928668882e+03,2.473484224965706744e+03,2.356145404663923273e+03,2.240891632373113680e+03,2.121563786008230181e+03,2.018779149519890325e+03,1.945500685871056021e+03,1.900233196159122144e+03,1.866680384087791481e+03,1.838134430727023300e+03,1.817489711934156276e+03,1.807187928669410212e+03,1.801536351165980705e+03,1.793333333333333258e+03,1.780507544581618731e+03,1.766968449931412806e+03,1.756337448559670747e+03,1.747818930041152498e+03,1.739561042524005643e+03,1.729478737997256530e+03,1.719163237311385501e+03,1.709176954732510239e+03,1.700987654320987531e+03,1.693621399176954810e+03,1.686803840877915036e+03,1.679780521262002821e+03,1.672825788751714754e+03,1.665706447187928688e+03,1.658216735253772185e+03,1.650356652949245472e+03,1.642510288065843497e+03,1.635048010973936925e+03,1.627942386831275599e+03,1.621097393689986347e+03,1.614540466392318194e+03,1.608532235939643442e+03,1.603237311385459634e+03,1.598696844993141212e+03,1.594540466392318194e+03,1.590491540923639604e+03,1.586442615454961015e+03,1.582393689986282425e+03,1.578344764517604062e+03,1.574295839048925473e+03,1.570246913580246883e+03,1.570246913580246883e+03,1.570246913580246883e+03,1.570246913580246883e+03,1.570246913580246883e+03,1.570246913580246883e+03,1.570246913580246883e+03,1.570246913580246883e+03,1.570246913580246883e+03,1.570246913580246883e+03,1.570246913580246883e+03,1.570246913580246883e+03,1.624732510288065896e+03,1.679218106995884682e+03,1.733703703703703695e+03,1.788189300411522709e+03,1.842674897119341495e+03,1.897160493827160508e+03,1.927229080932784882e+03,1.955390946502057659e+03,1.983991769547325248e+03,2.009670781893004005e+03,2.028806584362139802e+03,2.034115226337448576e+03,2.030384087791495404e+03,2.033058984910836443e+03,2.059945130315500592e+03,2.109670781893004005e+03,2.166172839506172750e+03,2.211563786008230636e+03,2.245596707818930099e+03,2.275706447187928461e+03,2.310150891632373259e+03,2.349876543209875763e+03,2.389684499314129425e+03,2.426954732510288068e+03,2.458299039780521525e+03,2.492167352537722763e+03,2.528614540466393009e+03,2.564801097393689815e+03,2.583772290809327842e+03,2.582962962962962592e+03,2.574403292181069901e+03,2.581275720164609083e+03,2.612304526748970602e+03,2.657956104252400110e+03,2.705857338820302175e+03,2.751124828532235369e+03,2.797475994513031310e+03,2.839615912208505051e+03,2.866117969821673796e+03,2.873058984910836898e+03,2.868614540466392100e+03,2.874773662551439884e+03,2.901042524005486939e+03,2.957887517146776190e+03,3.040068587105624374e+03,3.137283950617284063e+03,3.223593964334705106e+03,3.284746227709190407e+03,3.324746227709190407e+03,3.368326474622770547e+03,3.422263374485596160e+03,3.479039780521261491e+03,3.506817558299039774e+03,3.494334705075445527e+03,3.435816186556926823e+03,3.352085048010973878e+03,3.259245541838134159e+03,3.186776406035665786e+03,3.136035665294924911e+03,3.119074074074074360e+03,3.103703703703703923e+03
2.889382716049382907e+03,2.720397805212619915e+03,2.565390946502057432e+03,2.435061728395061436e+03,2.321865569272976700e+03,2.212990397805212524e+03,2.103635116598079549e+03,2.010727023319615682e+03,1.945459533607681806e+03,1.903388203017832438e+03,1.870480109739368800e+03,1.841591220850480340e+03,1.820658436213991536e+03,1.808834019204389733e+03,1.800685871056241467e+03,1.790548696844992946e+03,1.778230452674896924e+03,1.767736625514403386e+03,1.761851851851851734e+03,1.757434842249657095e+03,1.751234567901234414e+03,1.740507544581618731e+03,1.727750342935528124e+03,1.714362139917695458e+03,1.702359396433470693e+03,1.691742112482853145e+03,1.682729766803840903e+03,1.674979423868312779e+03,1.668134430727023300e+03,1.661591220850480113e+03,1.654650205761316784e+03,1.647325102880658278e+03,1.639972565157750296e+03,1.633072702331961636e+03,1.626419753086419632e+03,1.619835390946502002e+03,1.613347050754457996e+03,1.607325102880658505e+03,1.602057613168724401e+03,1.597558299039780650e+03,1.593552812071330663e+03,1.589602194787380085e+03,1.586310013717421270e+03,1.583017832647462455e+03,1.579725651577503413e+03,1.576433470507544598e+03,1.573141289437585783e+03,1.569849108367626968e+03,1.569849108367626968e+03,1.569849108367626968e+03,1.569849108367626968e+03,1.569849108367626968e+03,1.569849108367626968e+03,1.569849108367626968e+03,1.569849108367626968e+03,1.569849108367626968e+03,1.569849108367626968e+03,1.569849108367626968e+03,1.569849108367626968e+03,1.627796067672610889e+03,1.685743026977594809e+03,1.743689986282578957e+03,1.801636945587562877e+03,1.859583904892546798e+03,1.917530864197530718e+03,1.942524005486968235e+03,1.966447187928669337e+03,1.985884773662551424e+03,1.998353909465020706e+03,2.002647462277092018e+03,2.007393689986282880e+03,2.029053497942386912e+03,2.077764060356652863e+03,2.145665294924554019e+03,2.212812071330589788e+03,2.263058984910836898e+03,2.297475994513031765e+03,2.324142661179697825e+03,2.353923182441701101e+03,2.391563786008230181e+03,2.435582990397805133e+03,2.481906721536351142e+03,2.522496570644718759e+03,2.560013717421124966e+03,2.590754458161865841e+03,2.611728395061728406e+03,2.609012345679012014e+03,2.587379972565157459e+03,2.563895747599451624e+03,2.561495198902606262e+03,2.582414266117970328e+03,2.613100137174211341e+03,2.642853223593964231e+03,2.671275720164608629e+03,2.704115226337448348e+03,2.738436213991769819e+03,2.769163237311385728e+03,2.799615912208505051e+03,2.836323731138546009e+03,2.887311385459533540e+03,2.947462277091906799e+03,3.021604938271605079e+03,3.110425240054869846e+03,3.208683127572016019e+03,3.293209876543210157e+03,3.349190672153635205e+03,3.385445816186556840e+03,3.427709190672153454e+03,3.483484224965706289e+03,3.540727023319615910e+03,3.568120713305897880e+03,3.554499314128943297e+03,3.493347050754457996e+03,3.404890260631001638e+03,3.305020576131687449e+03,3.227362825788751707e+03,3.173048696844993174e+03,3.155324074074074360e+03,3.138888888888889142e+03
2.824197530864197688e+03,2.658381344307270410e+03,2.514801097393689815e+03,2.395624142661179576e+03,2.291152263374485756e+03,2.190178326474622736e+03,2.091714677640603441e+03,2.008641975308642031e+03,1.949286694101509056e+03,1.907503429355281241e+03,1.873004115226337717e+03,1.842853223593964231e+03,1.820685871056241467e+03,1.806200274348422454e+03,1.794842249657064258e+03,1.783058984910836898e+03,1.772098765432098844e+03,1.765253772290809366e+03,1.763854595336076500e+03,1.763196159122084964e+03,1.759176954732510239e+03,1.749080932784636389e+03,1.735747599451303131e+03,1.720836762688614726e+03,1.706241426611796896e+03,1.692647462277092018e+03,1.680877914951988942e+03,1.671289437585733822e+03,1.663388203017832666e+03,1.656652949245542004e+03,1.650123456790123555e+03,1.643607681755830072e+03,1.637037037037037180e+03,1.630768175582990352e+03,1.624609053497942341e+03,1.618449931412894330e+03,1.612373113854595431e+03,1.606598079561042596e+03,1.601440329218107308e+03,1.596831275720164740e+03,1.592784636488340084e+03,1.589026063100137435e+03,1.585775034293553063e+03,1.582524005486968690e+03,1.579272976680384090e+03,1.576021947873799718e+03,1.572770919067215345e+03,1.569519890260630973e+03,1.569519890260630973e+03,1.569519890260630973e+03,1.569519890260630973e+03,1.569519890260630973e+03,1.569519890260630973e+03,1.569519890260630973e+03,1.569519890260630973e+03,1.569519890260630973e+03,1.569519890260630973e+03,1.569519890260630973e+03,1.569519890260630973e+03,1.625756744398719547e+03,1.681993598536808349e+03,1.738230452674897151e+03,1.794467306812985726e+03,1.850704160951074300e+03,1.906941015089163102e+03,1.927475994513031310e+03,1.945294924554183808e+03,1.959396433470507645e+03,1.970452674897119550e+03,1.982400548696844908e+03,2.002016460905349959e+03,2.039780521262003049e+03,2.098052126200274415e+03,2.167270233196158642e+03,2.231591220850479658e+03,2.279903978052126149e+03,2.315144032921810776e+03,2.344115226337448348e+03,2.376035665294924911e+03,2.415871056241426686e+03,2.463703703703703468e+03,2.514979423868312551e+03,2.557860082304526713e+03,2.588669410150891963e+03,2.602798353909464822e+03,2.603196159122084737e+03,2.586131687242798307e+03,2.564320987654321016e+03,2.552331961591220988e+03,2.564554183813443160e+03,2.591069958847736871e+03,2.616063100137174843e+03,2.631385459533607445e+03,2.644142661179698280e+03,2.663251028806584145e+03,2.692085048010973878e+03,2.731399176954732866e+03,2.788545953360768635e+03,2.863593964334705106e+03,2.949286694101508601e+03,3.027201646090535178e+03,3.097407407407406936e+03,3.168559670781893146e+03,3.246351165980795940e+03,3.316392318244170383e+03,3.365816186556927278e+03,3.401879286694101665e+03,3.445061728395061436e+03,3.498957475994512606e+03,3.548106995884773823e+03,3.566200274348422681e+03,3.546090534979423865e+03,3.486076817558298899e+03,3.403470507544581778e+03,3.312592592592592609e+03,3.242530864197530718e+03,3.194629629629629562e+03,3.179166666666666515e+03,3.165185185185185674e+03
2.778669410150891508e+03,2.611248285322359152e+03,2.473580246913580140e+03,2.362647462277092018e+03,2.265020576131686994e+03,2.170315500685871029e+03,2.080370370370370438e+03,2.004746227709190407e+03,1.949012345679012242e+03,1.906927297668038364e+03,1.871358024691357969e+03,1.840631001371742286e+03,1.817023319615912214e+03,1.799643347050754528e+03,1.785418381344307363e+03,1.772565157750343133e+03,1.762592592592592382e+03,1.758010973936899745e+03,1.759149519890260535e+03,1.761165980795610494e+03,1.759300411522633794e+03,1.750946502057613088e+03,1.738710562414266178e+03,1.724375857338820197e+03,1.709519890260630973e+03,1.694828532235939747e+03,1.681412894375857604e+03,1.670219478737997179e+03,1.661028806584361973e+03,1.653662551440329253e+03,1.647037037037036953e+03,1.640919067215363611e+03,1.634828532235939747e+03,1.629039780521262173e+03,1.623292181069958815e+03,1.617489711934156276e+03,1.611714677640603441e+03,1.606076817558299126e+03,1.600960219478738054e+03,1.596227709190672158e+03,1.592085048010973878e+03,1.588280749885688010e+03,1.584476451760402369e+03,1.580672153635116501e+03,1.576867855509830633e+03,1.573063557384544993e+03,1.569259259259259125e+03,1.569259259259259125e+03,1.569259259259259125e+03,1.569259259259259125e+03,1.569259259259259125e+03,1.569259259259259125e+03,1.569259259259259125e+03,1.569259259259259125e+03,1.569259259259259125e+03,1.569259259259259125e+03,1.569259259259259125e+03,1.569259259259259125e+03,1.613930422191738899e+03,1.658601585124218673e+03,1.703272748056698674e+03,1.747943910989178448e+03,1.792615073921658222e+03,1.837286236854137996e+03,1.890891632373113680e+03,1.910411522633744880e+03,1.927764060356652635e+03,1.943525377229080732e+03,1.959410150891632384e+03,1.981165980795610494e+03,2.011412894375857604e+03,2.054362139917695458e+03,2.108340192043895513e+03,2.166529492455418222e+03,2.220288065843621553e+03,2.263827160493826796e+03,2.300329218106995540e+03,2.334348422496570493e+03,2.371824417009602257e+03,2.417133058984911258e+03,2.469849108367626741e+03,2.523278463648834077e+03,2.561618655692729590e+03,2.577064471879286430e+03,2.569506172839506235e+03,2.552112482853223355e+03,2.533100137174211341e+03,2.528545953360768635e+03,2.544430727023319378e+03,2.582853223593964231e+03,2.623827160493827250e+03,2.652647462277092018e+03,2.664142661179697825e+03,2.670919067215363611e+03,2.684663923182441977e+03,2.715596707818930099e+03,2.768038408779149449e+03,2.847187928669410212e+03,2.944759945130315828e+03,3.043840877914952216e+03,3.121467764060356785e+03,3.175486968449931283e+03,3.219135802469135797e+03,3.267544581618656139e+03,3.316227709190672613e+03,3.355240054869684627e+03,3.385898491083675708e+03,3.421961591220850096e+03,3.465418381344306908e+03,3.501906721536351142e+03,3.510041152263374443e+03,3.483731138545953399e+03,3.426790123456790297e+03,3.354314128943758533e+03,3.280713305898490944e+03,3.225552126200274870e+03,3.190236625514403386e+03,3.178842592592592609e+03,3.169629629629630017e+03
2.774718792866940476e+03,2.605486968449931283e+03,2.466899862825788659e+03,2.355349794238682989e+03,2.253100137174211341e+03,2.153717421124828888e+03,2.063072702331961409e+03,1.991056241426611678e+03,1.938587105624142851e+03,1.898422496570644853e+03,1.863964334705075316e+03,1.834238683127572131e+03,1.810068587105624147e+03,1.790754458161865614e+03,1.774691358024691453e+03,1.761316872427983753e+03,1.751659807956104260e+03,1.747654320987654501e+03,1.748916323731138618e+03,1.751591220850480113e+03,1.750795610425239829e+03,1.744705075445816192e+03,1.735034293552812187e+03,1.723305898491083553e+03,1.710192043895747702e+03,1.696296296296296532e+03,1.682894375857338673e+03,1.671330589849108492e+03,1.661495198902606262e+03,1.653347050754457996e+03,1.645912208504801129e+03,1.639231824417009875e+03,1.632894375857338900e+03,1.627174211248285246e+03,1.621783264746227815e+03,1.616406035665294894e+03,1.611015089163237462e+03,1.605514403292181214e+03,1.600384087791495176e+03,1.595514403292180987e+03,1.591262002743484118e+03,1.587530864197530718e+03,1.583799725651577546e+03,1.580068587105624147e+03,1.576337448559670747e+03,1.572606310013717575e+03,1.568875171467764176e+03,1.568875171467764176e+03,1.568875171467764176e+03,1.568875171467764176e+03,1.568875171467764176e+03,1.568875171467764176e+03,1.568875171467764176e+03,1.568875171467764176e+03,1.568875171467764176e+03,1.568875171467764176e+03,1.568875171467764176e+03,1.568875171467764176e+03,1.617517146776406207e+03,1.666159122085048011e+03,1.714801097393689815e+03,1.763443072702331847e+03,1.812085048010973878e+03,1.860727023319615682e+03,1.878737997256515655e+03,1.900164609053497998e+03,1.920836762688614726e+03,1.941591220850479885e+03,1.963388203017832438e+03,1.990946502057613088e+03,2.024101508916323837e+03,2.063772290809328297e+03,2.108216735253772640e+03,2.154485596707818786e+03,2.199410150891632384e+03,2.239972565157750523e+03,2.277475994513031310e+03,2.314787379972565304e+03,2.355500685871056703e+03,2.404266117969821607e+03,2.458888888888888687e+03,2.509602194787379631e+03,2.538312757201646036e+03,2.535569272976679713e+03,2.509423868312757349e+03,2.481618655692729590e+03,2.471015089163237462e+03,2.489602194787379631e+03,2.534005486968449532e+03,2.595116598079560845e+03,2.651879286694101665e+03,2.693456790123456813e+03,2.716652949245542004e+03,2.733415637860081915e+03,2.755473251028806317e+03,2.795939643347050605e+03,2.859492455418381724e+03,2.945514403292180759e+03,3.041563786008230636e+03,3.131399176954732411e+03,3.197983539094650496e+03,3.239396433470507873e+03,3.265884773662551652e+03,3.292373113854595431e+03,3.319643347050754073e+03,3.342235939643347137e+03,3.359122085048010831e+03,3.379382716049382907e+03,3.405500685871056703e+03,3.426515775034293256e+03,3.425775034293552380e+03,3.396021947873799490e+03,3.343401920438957404e+03,3.280637860082304542e+03,3.222290809327846546e+03,3.179900548696844453e+03,3.154722222222222626e+03,3.146435185185185674e+03,3.140740740740740875e+03
2.789218106995884227e+03,2.627942386831275599e+03,2.490521262002743242e+03,2.374855967078188769e+03,2.259053497942386912e+03,2.143744855967078365e+03,2.040644718792866797e+03,1.965733882030178393e+03,1.915761316872427869e+03,1.880973936899863020e+03,1.851330589849108492e+03,1.825075445816186402e+03,1.802098765432098844e+03,1.782482853223594020e+03,1.765857338820301948e+03,1.752126200274348548e+03,1.742030178326474697e+03,1.737256515775034359e+03,1.737325102880658505e+03,1.739259259259259352e+03,1.738559670781892919e+03,1.734115226337448576e+03,1.727009602194787476e+03,1.718312757201646264e+03,1.707983539094650041e+03,1.696282578875171566e+03,1.684417009602194639e+03,1.673676268861454218e+03,1.663923182441701101e+03,1.655075445816186630e+03,1.646433470507544598e+03,1.638559670781892919e+03,1.631467764060356558e+03,1.625473251028806544e+03,1.620137174211248066e+03,1.614897119341563894e+03,1.609615912208505051e+03,1.604197530864197688e+03,1.599094650205761354e+03,1.594279835390946573e+03,1.590013717421124738e+03,1.586273433927754922e+03,1.582533150434384879e+03,1.578792866941014836e+03,1.575052583447645020e+03,1.571312299954275204e+03,1.567572016460905161e+03,1.567572016460905161e+03,1.567572016460905161e+03,1.567572016460905161e+03,1.567572016460905161e+03,1.567572016460905161e+03,1.567572016460905161e+03,1.567572016460905161e+03,1.567572016460905161e+03,1.567572016460905161e+03,1.567572016460905161e+03,1.567572016460905161e+03,1.614583904892546798e+03,1.661595793324188207e+03,1.708607681755829844e+03,1.755619570187471481e+03,1.802631458619112891e+03,1.849643347050754528e+03,1.870864197530864203e+03,1.896831275720164740e+03,1.924005486968449986e+03,1.950932784636488350e+03,1.976378600823045417e+03,2.003950617283950578e+03,2.034348422496570720e+03,2.069204389574760171e+03,2.107585733882030127e+03,2.148696844993141440e+03,2.191015089163237462e+03,2.231769547325102394e+03,2.269300411522634022e+03,2.305048010973936925e+03,2.343209876543210157e+03,2.389149519890260763e+03,2.439931412894375626e+03,2.481508916323731228e+03,2.497050754458161464e+03,2.478161865569272777e+03,2.442524005486968235e+03,2.414801097393689815e+03,2.419314128943758533e+03,2.458587105624142623e+03,2.524156378600823700e+03,2.598957475994513061e+03,2.668189300411522254e+03,2.723045267489711478e+03,2.762825788751714754e+03,2.794801097393689815e+03,2.830946502057613088e+03,2.883840877914952216e+03,2.956159122085047784e+03,3.040054869684499408e+03,3.121193415637860198e+03,3.191303155006859015e+03,3.245432098765432329e+03,3.284773662551440339e+03,3.311563786008229727e+03,3.332222222222222172e+03,3.347777777777777828e+03,3.356159122085047784e+03,3.357037037037036953e+03,3.355665294924554473e+03,3.357517146776406207e+03,3.357805212620027305e+03,3.346666666666666060e+03,3.315171467764060708e+03,3.266844993141289706e+03,3.210980795610425048e+03,3.160342935528120961e+03,3.123830589849108492e+03,3.101478052126200055e+03,3.093935185185185674e+03,3.088148148148147811e+03
2.785967078189300537e+03,2.643004115226337490e+03,2.514732510288065896e+03,2.397969821673525075e+03,2.267050754458161464e+03,2.131714677640603441e+03,2.011783264746227815e+03,1.931893004115226177e+03,1.885212620027434923e+03,1.857956104252400564e+03,1.834883401920438928e+03,1.813347050754457996e+03,1.793305898491083781e+03,1.775665294924554019e+03,1.760192043895747702e+03,1.746666666666666742e+03,1.735857338820301720e+03,1.729602194787380085e+03,1.727517146776405980e+03,1.727325102880658505e+03,1.725445816186556840e+03,1.721563786008230636e+03,1.716310013717421043e+03,1.710233196159121690e+03,1.702702331961591426e+03,1.693799725651577774e+03,1.684348422496570720e+03,1.675294924554183808e+03,1.666268861454046601e+03,1.657215363511659689e+03,1.647791495198902794e+03,1.638930041152263129e+03,1.630987654320987531e+03,1.624348422496570493e+03,1.618600823045267589e+03,1.613237311385459861e+03,1.607997256515775234e+03,1.602812071330589788e+03,1.597818930041152271e+03,1.593127572016460590e+03,1.588820301783264767e+03,1.585009144947416644e+03,1.581197988111568293e+03,1.577386831275720169e+03,1.573575674439872046e+03,1.569764517604023695e+03,1.565953360768175571e+03,1.565953360768175571e+03,1.565953360768175571e+03,1.565953360768175571e+03,1.565953360768175571e+03,1.565953360768175571e+03,1.565953360768175571e+03,1.565953360768175571e+03,1.565953360768175571e+03,1.565953360768175571e+03,1.565953360768175571e+03,1.565953360768175571e+03,1.612914951989026122e+03,1.659876543209876445e+03,1.706838134430726996e+03,1.753799725651577546e+03,1.800761316872427869e+03,1.847722908093278420e+03,1.870754458161865614e+03,1.898148148148148039e+03,1.927860082304526713e+03,1.957050754458162146e+03,1.983786008230453035e+03,2.010946502057613088e+03,2.040219478737997406e+03,2.073676268861454446e+03,2.110356652949245472e+03,2.150233196159122144e+03,2.191412894375856922e+03,2.230178326474622736e+03,2.263113854595335397e+03,2.292153635116597798e+03,2.324814814814814781e+03,2.365953360768175571e+03,2.411358024691357514e+03,2.442098765432098844e+03,2.446255144032922090e+03,2.418587105624143078e+03,2.385555555555555657e+03,2.368765432098765359e+03,2.392373113854594976e+03,2.447613168724279603e+03,2.524828532235939292e+03,2.603635116598079549e+03,2.677613168724279603e+03,2.738779149519890325e+03,2.788504801097393738e+03,2.830425240054869846e+03,2.877462277091906799e+03,2.940548696844993174e+03,3.018052126200274870e+03,3.095788751714677801e+03,3.158326474622770547e+03,3.208477366255143352e+03,3.253580246913580140e+03,3.299423868312756895e+03,3.339094650205761354e+03,3.368367626886145445e+03,3.385390946502057432e+03,3.390027434842249477e+03,3.382935528120713116e+03,3.366049382716049422e+03,3.345775034293552835e+03,3.324019204389574952e+03,3.299012345679011560e+03,3.263936899862825157e+03,3.217256515775034131e+03,3.163443072702331847e+03,3.111440329218106854e+03,3.072613168724279603e+03,3.046220850480109675e+03,3.037314814814814326e+03,3.028888888888888687e+03
2.741714677640603895e+03,2.618395061728394921e+03,2.502784636488340311e+03,2.389080932784636389e+03,2.251646090534979521e+03,2.106570644718792664e+03,1.978559670781892919e+03,1.896982167352537772e+03,1.853936899862825840e+03,1.833086419753086375e+03,1.815857338820301948e+03,1.798614540466392100e+03,1.782181069958847729e+03,1.768079561042523892e+03,1.755679012345678984e+03,1.743840877914951989e+03,1.732976680384087786e+03,1.724979423868312551e+03,1.720109739368998817e+03,1.716968449931413033e+03,1.713223593964334896e+03,1.708724279835390917e+03,1.703950617283950578e+03,1.699067215363511650e+03,1.693497942386831255e+03,1.687091906721536361e+03,1.680192043895747474e+03,1.673113854595336306e+03,1.665294924554184036e+03,1.656694101508916219e+03,1.647366255144032948e+03,1.638367626886145445e+03,1.630192043895747474e+03,1.623223593964334668e+03,1.617119341563786293e+03,1.611632373113854555e+03,1.606433470507544598e+03,1.601577503429355374e+03,1.596803840877914809e+03,1.592304526748971284e+03,1.587668038408779239e+03,1.583031550068587194e+03,1.578395061728395149e+03,1.573758573388203104e+03,1.569122085048011058e+03,1.564485596707819013e+03,1.564485596707819013e+03,1.564485596707819013e+03,1.564485596707819013e+03,1.564485596707819013e+03,1.564485596707819013e+03,1.564485596707819013e+03,1.564485596707819013e+03,1.564485596707819013e+03,1.564485596707819013e+03,1.564485596707819013e+03,1.564485596707819013e+03,1.604378524615150127e+03,1.644271452522481241e+03,1.684164380429812354e+03,1.724057308337143695e+03,1.763950236244474809e+03,1.803843164151805922e+03,1.851714677640603441e+03,1.874581618655692864e+03,1.901618655692729817e+03,1.931769547325103076e+03,1.961467764060356558e+03,1.988614540466392327e+03,2.015967078189300082e+03,2.045898491083676163e+03,2.080246913580247110e+03,2.116474622770919268e+03,2.153127572016460817e+03,2.187489711934156276e+03,2.216803840877915263e+03,2.239807956104252298e+03,2.260233196159121690e+03,2.287887517146776645e+03,2.324801097393689815e+03,2.365418381344307363e+03,2.388038408779149449e+03,2.387393689986282880e+03,2.362880658436214162e+03,2.345871056241426686e+03,2.351591220850480113e+03,2.397352537722907527e+03,2.464924554183813598e+03,2.544773662551440339e+03,2.618847736625514699e+03,2.688093278463648858e+03,2.745651577503429507e+03,2.794087791495198871e+03,2.835733882030178393e+03,2.885061728395061891e+03,2.952729766803840903e+03,3.033100137174211341e+03,3.107709190672153454e+03,3.157722908093278420e+03,3.193566529492455629e+03,3.231248285322359607e+03,3.282812071330589788e+03,3.336598079561042596e+03,3.380891632373113225e+03,3.410233196159121690e+03,3.424046639231824884e+03,3.420727023319615910e+03,3.398751714677640393e+03,3.363635116598079549e+03,3.324444444444444343e+03,3.286296296296296532e+03,3.246159122085048239e+03,3.197695473251028943e+03,3.141625514403292527e+03,3.083264746227709111e+03,3.038137860082304542e+03,3.004893689986282425e+03,2.993749999999999545e+03,2.981851851851851734e+03
2.660329218106995995e+03,2.550425240054869846e+03,2.446063100137173933e+03,2.337956104252400564e+03,2.204307270233196050e+03,2.063827160493827250e+03,1.942057613168724174e+03,1.866268861454046601e+03,1.828189300411522709e+03,1.811111111111111086e+03,1.797215363511659689e+03,1.782962962962962820e+03,1.769986282578875262e+03,1.759684499314128971e+03,1.750672153635116729e+03,1.741138545953360790e+03,1.730809327846364795e+03,1.721481481481481524e+03,1.713717421124828661e+03,1.707448559670781833e+03,1.701563786008230409e+03,1.696090534979423865e+03,1.691028806584362201e+03,1.686364883401920224e+03,1.681646090534979521e+03,1.676831275720164513e+03,1.671769547325103076e+03,1.666323731138546009e+03,1.659739368998628152e+03,1.652085048010973878e+03,1.643648834019204287e+03,1.635377229080932921e+03,1.627681755829903977e+03,1.620946502057613088e+03,1.615006858710562483e+03,1.609849108367626741e+03,1.605061728395061891e+03,1.600672153635116501e+03,1.596186556927297715e+03,1.591838134430726768e+03,1.587101051668952778e+03,1.582363968907178560e+03,1.577626886145404569e+03,1.572889803383630579e+03,1.568152720621856361e+03,1.563415637860082370e+03,1.563415637860082370e+03,1.563415637860082370e+03,1.563415637860082370e+03,1.563415637860082370e+03,1.563415637860082370e+03,1.563415637860082370e+03,1.563415637860082370e+03,1.563415637860082370e+03,1.563415637860082370e+03,1.563415637860082370e+03,1.563415637860082370e+03,1.608470507544581778e+03,1.653525377229080959e+03,1.698580246913580368e+03,1.743635116598079776e+03,1.788689986282578957e+03,1.833744855967078365e+03,1.859903978052125922e+03,1.882770919067215118e+03,1.907983539094650041e+03,1.935569272976680395e+03,1.963031550068586967e+03,1.989053497942386912e+03,2.016858710562414217e+03,2.048559670781893146e+03,2.084320987654320561e+03,2.118367626886145445e+03,2.146721536351165923e+03,2.167146776406035315e+03,2.181536351165980705e+03,2.193360768175582962e+03,2.208024691358024938e+03,2.233196159122084737e+03,2.267860082304526713e+03,2.305253772290809593e+03,2.325747599451303358e+03,2.329615912208504596e+03,2.321056241426611450e+03,2.331207133058984709e+03,2.367695473251028943e+03,2.436954732510288068e+03,2.513662551440329025e+03,2.587434842249656867e+03,2.647297668038409029e+03,2.700658436213991990e+03,2.745871056241426231e+03,2.785377229080932466e+03,2.821824417009602257e+03,2.868504801097393738e+03,2.935555555555556111e+03,3.014883401920438700e+03,3.087146776406035315e+03,3.131165980795610722e+03,3.159588477366255574e+03,3.191591220850479658e+03,3.244595336076817603e+03,3.306831275720164740e+03,3.364828532235939747e+03,3.409821673525377264e+03,3.440589849108367162e+03,3.450219478737997633e+03,3.434567901234567671e+03,3.395720164609053427e+03,3.348847736625514699e+03,3.302921810699588605e+03,3.258600823045267134e+03,3.205651577503429507e+03,3.142421124828531902e+03,3.073415637860082370e+03,3.018878600823044962e+03,2.978611111111111313e+03,2.965231481481481296e+03,2.951111111111110858e+03
2.554718792866940476e+03,2.452126200274347866e+03,2.356790123456789843e+03,2.257229080932784655e+03,2.137229080932784655e+03,2.014334705075445981e+03,1.910178326474622736e+03,1.845569272976680395e+03,1.812181069958847957e+03,1.795596707818930099e+03,1.781989026063100027e+03,1.768806584362139802e+03,1.757805212620027532e+03,1.749615912208504824e+03,1.742688614540466688e+03,1.735048010973936925e+03,1.725816186556927278e+03,1.716131687242798307e+03,1.706748971193415855e+03,1.698683127572016474e+03,1.691755829903978110e+03,1.685843621399176982e+03,1.680452674897119323e+03,1.675514403292180987e+03,1.670823045267489761e+03,1.666529492455418222e+03,1.662263374485596614e+03,1.657695473251028716e+03,1.652016460905349959e+03,1.645267489711934331e+03,1.637818930041152271e+03,1.630521262002743470e+03,1.623799725651577319e+03,1.617942386831275826e+03,1.612784636488340311e+03,1.608203017832647447e+03,1.603827160493827250e+03,1.599643347050754528e+03,1.595349794238682989e+03,1.591111111111111086e+03,1.586424325560127954e+03,1.581737540009144823e+03,1.577050754458161919e+03,1.572363968907178787e+03,1.567677183356195656e+03,1.562990397805212524e+03,1.562990397805212524e+03,1.562990397805212524e+03,1.562990397805212524e+03,1.562990397805212524e+03,1.562990397805212524e+03,1.562990397805212524e+03,1.562990397805212524e+03,1.562990397805212524e+03,1.562990397805212524e+03,1.562990397805212524e+03,1.562990397805212524e+03,1.608543667123914020e+03,1.654096936442615288e+03,1.699650205761316556e+03,1.745203475080018052e+03,1.790756744398719547e+03,1.836310013717420816e+03,1.866913580246913170e+03,1.891769547325102621e+03,1.916748971193415628e+03,1.941851851851851507e+03,1.965130315500685811e+03,1.986433470507544371e+03,2.010987654320987531e+03,2.042016460905349959e+03,2.078340192043895968e+03,2.109945130315500592e+03,2.130411522633744880e+03,2.139423868312757349e+03,2.145925925925926094e+03,2.156296296296296532e+03,2.173196159122084737e+03,2.196241426611797124e+03,2.223799725651577774e+03,2.252647462277092018e+03,2.273086419753086375e+03,2.288559670781893146e+03,2.304622770919067534e+03,2.344471879286693820e+03,2.409122085048010831e+03,2.495514403292180759e+03,2.576419753086419860e+03,2.639876543209876218e+03,2.681522633744855739e+03,2.713909465020575681e+03,2.742976680384088013e+03,2.772537722908093201e+03,2.804499314128943297e+03,2.847914951989026122e+03,2.910219478737997633e+03,2.984224965706447620e+03,3.053374485596707473e+03,3.097133058984911258e+03,3.124526748971193228e+03,3.153072702331961409e+03,3.202578875171468098e+03,3.266186556927297261e+03,3.332770919067215345e+03,3.392482853223593793e+03,3.442016460905349504e+03,3.468614540466392100e+03,3.464773662551440339e+03,3.429355281207132975e+03,3.381412894375857377e+03,3.331906721536351597e+03,3.284060356652949395e+03,3.225953360768175116e+03,3.155747599451302904e+03,3.078216735253772185e+03,3.016570644718793119e+03,2.971440329218106854e+03,2.956481481481481296e+03,2.941111111111110858e+03
2.433703703703703468e+03,2.338875171467764631e+03,2.254128943758573314e+03,2.167818930041152271e+03,2.067599451303155092e+03,1.967997256515775234e+03,1.884951989026063075e+03,1.832949245541838309e+03,1.803621399176954810e+03,1.786241426611796896e+03,1.771783264746227815e+03,1.759231824417009648e+03,1.749368998628257941e+03,1.741591220850480113e+03,1.734430727023319605e+03,1.726899862825788887e+03,1.718340192043895968e+03,1.709259259259259352e+03,1.699903978052126149e+03,1.691659807956104260e+03,1.684787379972565077e+03,1.679286694101509056e+03,1.674224965706447165e+03,1.669561042524005643e+03,1.664951989026063075e+03,1.660727023319615682e+03,1.656392318244170156e+03,1.651906721536351142e+03,1.646529492455418449e+03,1.640342935528120961e+03,1.633525377229080959e+03,1.626899862825788432e+03,1.620905349794238646e+03,1.615788751714677801e+03,1.611289437585733822e+03,1.607064471879286884e+03,1.602839506172839492e+03,1.598559670781892692e+03,1.594293552812071539e+03,1.588980338363054670e+03,1.583667123914037575e+03,1.578353909465020479e+03,1.573040695016003610e+03,1.567727480566986742e+03,1.562414266117969646e+03,1.562414266117969646e+03,1.562414266117969646e+03,1.562414266117969646e+03,1.562414266117969646e+03,1.562414266117969646e+03,1.562414266117969646e+03,1.562414266117969646e+03,1.562414266117969646e+03,1.562414266117969646e+03,1.562414266117969646e+03,1.562414266117969646e+03,1.600068587105623919e+03,1.637722908093278193e+03,1.675377229080932466e+03,1.713031550068586967e+03,1.750685871056241240e+03,1.788340192043895513e+03,1.833525377229080732e+03,1.868175582990397515e+03,1.895157750342935287e+03,1.920178326474622736e+03,1.943072702331961636e+03,1.961536351165980705e+03,1.976611796982167107e+03,1.995843621399176754e+03,2.024224965706446937e+03,2.059698216735253482e+03,2.089698216735253936e+03,2.108820301783264767e+03,2.119396433470507418e+03,2.134334705075445527e+03,2.156131687242797852e+03,2.181508916323730773e+03,2.202181069958847729e+03,2.220288065843621098e+03,2.238984910836762538e+03,2.260932784636488577e+03,2.289849108367627196e+03,2.328587105624143078e+03,2.388271604938271139e+03,2.465596707818929644e+03,2.554417009602193957e+03,2.631618655692730044e+03,2.684622770919066625e+03,2.711810699588477746e+03,2.727187928669410212e+03,2.743168724279835260e+03,2.765679012345678984e+03,2.795555555555555657e+03,2.836268861454046601e+03,2.891042524005487394e+03,2.955582990397805133e+03,3.018888888888889142e+03,3.065404663923182852e+03,3.098765432098765359e+03,3.130548696844993174e+03,3.177585733882030127e+03,3.237983539094650041e+03,3.306186556927297715e+03,3.374773662551439884e+03,3.438875171467763721e+03,3.481165980795610722e+03,3.489711934156378447e+03,3.460905349794238646e+03,3.414403292181069901e+03,3.362812071330589333e+03,3.311344307270233458e+03,3.248957475994512606e+03,3.174465020576131337e+03,3.093100137174211341e+03,3.028638545953360790e+03,2.982307956104252298e+03,2.966990740740740875e+03,2.951851851851851734e+03
2.299876543209876218e+03,2.216200274348422681e+03,2.144732510288065896e+03,2.075706447187928916e+03,1.999410150891632384e+03,1.926488340192044006e+03,1.865953360768175799e+03,1.826364883401920224e+03,1.800096021947873851e+03,1.781262002743484118e+03,1.765802469135802539e+03,1.753772290809327842e+03,1.744403292181069901e+03,1.736063100137174160e+03,1.727969821673525303e+03,1.720219478737997406e+03,1.712386831275720169e+03,1.704266117969821607e+03,1.695761316872427869e+03,1.688340192043895513e+03,1.682414266117969646e+03,1.677928669410150860e+03,1.673580246913580368e+03,1.669218106995884682e+03,1.664307270233196277e+03,1.659423868312757122e+03,1.654307270233196277e+03,1.649423868312757349e+03,1.644074074074073906e+03,1.638257887517146628e+03,1.631824417009602030e+03,1.625596707818930099e+03,1.620000000000000000e+03,1.615267489711934331e+03,1.610987654320987758e+03,1.606666666666666742e+03,1.602167352537722991e+03,1.597544581618655684e+03,1.593223593964334896e+03,1.588086419753086602e+03,1.582949245541838081e+03,1.577812071330589788e+03,1.572674897119341495e+03,1.567537722908092974e+03,1.562400548696844680e+03,1.562400548696844680e+03,1.562400548696844680e+03,1.562400548696844680e+03,1.562400548696844680e+03,1.562400548696844680e+03,1.562400548696844680e+03,1.562400548696844680e+03,1.562400548696844680e+03,1.562400548696844680e+03,1.562400548696844680e+03,1.562400548696844680e+03,1.598749428440786232e+03,1.635098308184727784e+03,1.671447187928669337e+03,1.707796067672610889e+03,1.744144947416552441e+03,1.780493827160493993e+03,1.826694101508916674e+03,1.863333333333333258e+03,1.891207133058984937e+03,1.916227709190672158e+03,1.938696844993141440e+03,1.955281207133059070e+03,1.967201646090534950e+03,1.982263374485596614e+03,2.006515775034293938e+03,2.038120713305898562e+03,2.066255144032922090e+03,2.090342935528120961e+03,2.115541838134430691e+03,2.153580246913580595e+03,2.198120713305898335e+03,2.238285322359396559e+03,2.260288065843621098e+03,2.270685871056241467e+03,2.279629629629629562e+03,2.301138545953361245e+03,2.338491083676269227e+03,2.389094650205761354e+03,2.450329218106995995e+03,2.518340192043895513e+03,2.590987654320987986e+03,2.656666666666666060e+03,2.703731138545953399e+03,2.729231824417009193e+03,2.742222222222222172e+03,2.755692729766803950e+03,2.776268861454046146e+03,2.804115226337448348e+03,2.839711934156378902e+03,2.884074074074074360e+03,2.937462277091906799e+03,2.995308641975308547e+03,3.047736625514402931e+03,3.092373113854595431e+03,3.132071330589848458e+03,3.176803840877914809e+03,3.229231824417009648e+03,3.290987654320987986e+03,3.360521262002743242e+03,3.431371742112482480e+03,3.484293552812071084e+03,3.502606310013717120e+03,3.481495198902606262e+03,3.437229080932784200e+03,3.383319615912208064e+03,3.327023319615911987e+03,3.261728395061728406e+03,3.188285322359396105e+03,3.111220850480109675e+03,3.051268861454047055e+03,3.008731138545952945e+03,2.994722222222221262e+03,2.981111111111110858e+03
