nan,nan,nan,nan,nan,nan,nan,nan,nan,nan,nan,nan,nan,nan,nan,1.881359625000000051e+03,1.821721000000000004e+03,1.736375800000000027e+03,1.619964487499999905e+03,1.519775768749999770e+03,1.445324799999999868e+03,1.388360981249999895e+03,1.346465656250000166e+03,1.292333818750000091e+03,1.234908712500000092e+03,1.184182099999999991e+03,1.086229800000000068e+03,9.772490250000000742e+02,9.028836250000000518e+02,8.533601437500000202e+02,8.317308312499999374e+02,8.278733124999998836e+02,8.293024874999999838e+02,8.304082687499999338e+02,8.252892500000000382e+02,8.119112499999999955e+02,8.218132375000000138e+02,8.623963062499999523e+02,8.864884124999999813e+02,8.849449312500000815e+02,8.796379937500000779e+02,8.758101750000000720e+02,8.695516375000000835e+02,8.561549062499999536e+02,8.273875249999999824e+02,7.932158437499999764e+02,7.742767687499999738e+02,7.644130812500000047e+02,7.504457312499999944e+02,7.323084124999999176e+02,7.170482875000000149e+02,7.103927218750000065e+02,7.072326887499999657e+02,6.992567000000000235e+02,6.898854806249999001e+02,6.838478506249998645e+02,6.827662174999999252e+02,6.834616962499999318e+02,6.821762456249998650e+02,6.802167768749999368e+02,6.779892700000000332e+02,6.761774143750000121e+02,6.744427893750000749e+02,6.722645593749999762e+02,6.699824937500000033e+02,6.676456906250000429e+02,6.656879593749999913e+02,6.640350343750001230e+02,6.620429337499999747e+02,6.597912943750000068e+02,6.573263274999999339e+02,6.545058318750000126e+02,6.514865725000000793e+02,6.485588106250000919e+02,6.466803906249999727e+02,6.460467650000000503e+02,6.454525981250000086e+02,6.444498812499999758e+02,6.437707675000000336e+02,6.442452849999999671e+02,6.455433024999999816e+02,6.469403350000000046e+02,6.483766325000001416e+02,6.501024156250000487e+02,6.522857043750000230e+02,6.549756112499999290e+02,6.587841162500000110e+02,6.642398187500000404e+02,6.719873949999999923e+02,6.812841768750000710e+02,6.922404356250000319e+02,7.082410862500000803e+02,7.332488912500000424e+02,7.717500937500000191e+02,8.206720062500000950e+02,8.764346687499999007e+02,9.445840437499999780e+02,9.999382749999999760e+02,1.028501549999999952e+03,1.034662874999999985e+03,1.006951412499999947e+03,9.950800062499999967e+02,1.051153718750000053e+03,1.152278774999999769e+03,1.212927081249999901e+03,1.177753356250000024e+03,1.107032681249999996e+03,1.099740837499999998e+03,1.209096618749999834e+03,1.348277181250000012e+03,1.405909831249999797e+03,1.408287187500000073e+03,1.413664281249999931e+03,nan,nan,nan,nan,nan,nan,nan,nan,nan,nan,nan,nan,nan,nan,nan,nan,nan,nan,nan,nan,nan,nan,nan,nan,nan,nan,nan,nan,nan,nan,nan,nan
nan,nan,nan,nan,nan,nan,nan,nan,nan,nan,nan,nan,nan,nan,nan,nan,1.902262562500000058e+03,1.787812018750000107e+03,1.677898262500000328e+03,1.580192862500000274e+03,1.473397831250000081e+03,1.369379581250000228e+03,1.283128443750000088e+03,1.215380306250000103e+03,1.176564018749999832e+03,1.145154899999999998e+03,1.056687312500000189e+03,9.535830437500000016e+02,8.959705062499999713e+02,8.565615875000000869e+02,8.321619437500000913e+02,8.247874875000001111e+02,8.272191500000000133e+02,8.343013562500000262e+02,8.246318125000000236e+02,8.094380562500000451e+02,8.420624062499998672e+02,9.047596624999999904e+02,9.245173687500000597e+02,9.063835249999999633e+02,8.809156625000000531e+02,8.598792375000000447e+02,8.508575187500000538e+02,8.434507937499998889e+02,8.202108499999999367e+02,7.880010687500000586e+02,7.673336562499999900e+02,7.554414500000000317e+02,7.430598687499999642e+02,7.270216187500000160e+02,7.144522687500000302e+02,7.082091550000000097e+02,7.011434518749999825e+02,6.933285562500000196e+02,6.872922112499999230e+02,6.824655418749999853e+02,6.804519418750001023e+02,6.804060881249999966e+02,6.795203231250000044e+02,6.780590931250000040e+02,6.760749868750000360e+02,6.741449949999999944e+02,6.724429931250000436e+02,6.705618325000000368e+02,6.684574937499999123e+02,6.662670550000000276e+02,6.643509774999999991e+02,6.625438106249999919e+02,6.606458287499999642e+02,6.587324699999999211e+02,6.565877849999999398e+02,6.540566318749999937e+02,6.512148206250000158e+02,6.483202081250000219e+02,6.462218168750000586e+02,6.453838218749999669e+02,6.449902974999999969e+02,6.439967312499999252e+02,6.429836643749999894e+02,6.434346987499999386e+02,6.448987374999999247e+02,6.462656206250001105e+02,6.475760925000000725e+02,6.491602474999999686e+02,6.510652693749999571e+02,6.530960318749998805e+02,6.560992618750000247e+02,6.611521356249999144e+02,6.677760231249999379e+02,6.742470437499999889e+02,6.828310381250000773e+02,7.013328850000000330e+02,7.296759200000000192e+02,7.617517937500001608e+02,7.998863499999999931e+02,8.561375749999999698e+02,9.230756562500000655e+02,9.843330812499999638e+02,1.028851743749999969e+03,1.011113325000000032e+03,9.904447874999999613e+02,1.020902837500000032e+03,1.062520993749999889e+03,1.155481256249999888e+03,1.203371468750000076e+03,1.100979843750000100e+03,1.023945437500000025e+03,1.108644199999999955e+03,1.258521443749999889e+03,1.355904599999999846e+03,1.385490775000000212e+03,1.389237912500000220e+03,1.384524406250000084e+03,nan,nan,nan,nan,nan,nan,nan,nan,nan,nan,nan,nan,nan,nan,nan,nan,nan,nan,nan,nan,nan,nan,nan,nan,nan,nan,nan,nan,nan,nan,nan,nan
nan,nan,nan,nan,nan,nan,nan,nan,nan,nan,nan,nan,nan,nan,nan,nan,1.958509812499999953e+03,1.759560512500000186e+03,1.642139218750000055e+03,1.597459574999999859e+03,1.531731812499999933e+03,1.429930968749999920e+03,1.325090287500000159e+03,1.228140337499999987e+03,1.134464825000000019e+03,1.054401556250000112e+03,9.884958249999999680e+02,9.294047249999999849e+02,8.912732499999999618e+02,8.578431812500000433e+02,8.335381812499999796e+02,8.229952687499999229e+02,8.305550312499999563e+02,8.583330750000000080e+02,8.535519437500000777e+02,8.322868437500001164e+02,8.697278874999999516e+02,9.286296187500000769e+02,9.338792187500000637e+02,9.087081812499999387e+02,8.762633124999999836e+02,8.440010500000000775e+02,8.325593375000000833e+02,8.269241562499998963e+02,8.046736624999998639e+02,7.757963937499999929e+02,7.591199187500001244e+02,7.498099375000000464e+02,7.398559937499999251e+02,7.265819625000000315e+02,7.150385387500000434e+02,7.077180150000000367e+02,6.986382593749999614e+02,6.903854099999998652e+02,6.842924881250000908e+02,6.796054756249999400e+02,6.774519631250000202e+02,6.769644781250000278e+02,6.768358687500000315e+02,6.760051112500000272e+02,6.742266068750000159e+02,6.722807231250000086e+02,6.704026712499999121e+02,6.685012687500000084e+02,6.665549456249999594e+02,6.646519049999999424e+02,6.629294381250000470e+02,6.613627031250000528e+02,6.598473962499999743e+02,6.577751518750000059e+02,6.554181462500000634e+02,6.533813949999999977e+02,6.511919649999999820e+02,6.486528193750000355e+02,6.464783925000000409e+02,6.448939387499999611e+02,6.437820412500000202e+02,6.428950093749999724e+02,6.421578568749998794e+02,6.426318074999999226e+02,6.439853056249999099e+02,6.452484793749999881e+02,6.466092187499999682e+02,6.480512612499999250e+02,6.497142412499999864e+02,6.513977012499999546e+02,6.533988043750000543e+02,6.571177993750000041e+02,6.621473831250000330e+02,6.663619868749999569e+02,6.727569031250000080e+02,6.903675362500000574e+02,7.249475243749999436e+02,7.677462325000001329e+02,8.068311250000000427e+02,8.471654062499999327e+02,8.921353937500000484e+02,9.458486875000000964e+02,9.817767937500000244e+02,9.735205312499999764e+02,1.001945650000000001e+03,1.043409762499999943e+03,1.060523668749999842e+03,1.145585450000000037e+03,1.169717593750000106e+03,1.048180268750000096e+03,1.020168668750000052e+03,1.165467949999999973e+03,1.297785012499999993e+03,1.347559975000000122e+03,1.357055756250000059e+03,1.359668031250000013e+03,nan,nan,nan,nan,nan,nan,nan,nan,nan,nan,nan,nan,nan,nan,nan,nan,nan,nan,nan,nan,nan,nan,nan,nan,nan,nan,nan,nan,nan,nan,nan,nan,nan
nan,nan,nan,nan,nan,nan,nan,nan,nan,nan,nan,nan,nan,nan,nan,nan,1.953141981249999844e+03,1.697124281249999967e+03,1.533152293749999899e+03,1.484174012500000117e+03,1.443049931249999872e+03,1.375034824999999728e+03,1.309042881249999937e+03,1.241404968750000080e+03,1.125512712499999907e+03,9.954427375000000211e+02,9.345353187499999876e+02,9.186292187500000637e+02,9.004193999999999960e+02,8.668019250000000966e+02,8.407577499999999873e+02,8.248799687499999891e+02,8.310596375000000080e+02,8.699084249999998519e+02,8.731012124999999742e+02,8.589541000000000395e+02,8.973764999999999645e+02,9.309284999999999854e+02,9.115049374999999827e+02,8.833344937499998650e+02,8.577064937500000497e+02,8.296897624999999152e+02,8.159994187500000180e+02,8.083069375000000036e+02,7.909368750000001000e+02,7.687332750000000487e+02,7.540392125000000760e+02,7.431337250000000267e+02,7.323331999999999198e+02,7.224113999999999578e+02,7.106038806249999880e+02,7.010627481249999846e+02,6.950597474999999577e+02,6.889385637499999575e+02,6.815246668749999799e+02,6.760884606249999251e+02,6.737761718750000455e+02,6.733641900000000078e+02,6.741855143749999115e+02,6.739138574999999491e+02,6.721785575000000108e+02,6.704978774999999587e+02,6.687765474999999924e+02,6.667870637500000157e+02,6.649055943749999642e+02,6.631353624999999283e+02,6.613787499999999682e+02,6.601510612499999979e+02,6.593033924999999726e+02,6.572635512500000914e+02,6.547925106250000908e+02,6.531110925000000407e+02,6.512856050000000323e+02,6.490577000000000680e+02,6.469450224999999364e+02,6.445060781249999309e+02,6.425287106250000306e+02,6.420726031250000005e+02,6.419162768749999941e+02,6.421351962500000354e+02,6.430614168749999635e+02,6.441523550000000569e+02,6.454693287499999315e+02,6.468995112499999323e+02,6.486100599999999758e+02,6.505902881250000291e+02,6.525615618750000522e+02,6.550184743750000962e+02,6.583093743750000613e+02,6.619968668750000234e+02,6.679274787500000912e+02,6.807223293749999584e+02,7.080178293750000194e+02,7.498811050000001615e+02,7.930070375000000240e+02,8.265774124999999231e+02,8.611215374999999312e+02,9.033267062499999156e+02,9.243827374999999620e+02,9.479538000000000011e+02,1.007812918750000108e+03,1.031300968750000038e+03,1.052024968749999971e+03,1.118675762500000019e+03,1.081560412499999984e+03,9.795060750000000098e+02,1.038557381249999935e+03,1.204675956250000127e+03,1.297919618749999927e+03,1.326709431250000080e+03,1.332083300000000008e+03,nan,nan,nan,nan,nan,nan,nan,nan,nan,nan,nan,nan,nan,nan,nan,nan,nan,nan,nan,nan,nan,nan,nan,nan,nan,nan,nan,nan,nan,nan,nan,nan,nan,nan
nan,nan,nan,nan,nan,nan,nan,nan,nan,nan,nan,nan,nan,nan,nan,nan,1.870506899999999860e+03,1.659770262499999944e+03,1.532045468750000055e+03,1.485324943749999875e+03,1.429897037500000124e+03,1.333759774999999991e+03,1.241383212499999900e+03,1.178055425000000014e+03,1.087334974999999986e+03,9.745012062499999956e+02,9.156465500000000475e+02,9.036503437499999336e+02,8.962043937500000084e+02,8.688813812500000040e+02,8.402270875000000387e+02,8.230912500000000591e+02,8.375915374999999585e+02,8.780219187499999407e+02,8.751084937499999796e+02,8.753971687499999916e+02,9.196706499999999096e+02,9.260611499999999978e+02,8.841241750000000366e+02,8.487836624999999913e+02,8.293219062499999836e+02,8.129567437500001006e+02,8.010099874999999656e+02,7.923360812500000065e+02,7.815112625000000435e+02,7.672385999999999058e+02,7.508222749999999905e+02,7.351351062500000353e+02,7.235668312499999502e+02,7.161413500000001022e+02,7.063398399999998674e+02,6.951687500000000455e+02,6.878640043749999222e+02,6.826687018750000107e+02,6.771663499999999658e+02,6.729649650000000065e+02,6.706946199999999862e+02,6.704246375000000171e+02,6.717873687500000415e+02,6.717345812500000193e+02,6.698718450000000075e+02,6.684732174999999188e+02,6.674085431250000511e+02,6.655841306250000571e+02,6.634865387499999088e+02,6.617630656249999674e+02,6.601348900000000413e+02,6.585417700000000423e+02,6.572985224999999900e+02,6.558719849999999951e+02,6.541531599999999571e+02,6.525313075000000254e+02,6.508850306250000131e+02,6.490563156250000247e+02,6.470598218750000115e+02,6.448235112500000241e+02,6.431174375000000509e+02,6.422232237499999883e+02,6.415761274999999841e+02,6.417389781250000169e+02,6.424635056249999252e+02,6.432419162500000311e+02,6.443894762499999160e+02,6.460588018749999719e+02,6.481484543750000284e+02,6.505731837499999983e+02,6.530964725000000044e+02,6.554563837500001000e+02,6.582941312499999640e+02,6.621669074999999793e+02,6.679331731250000530e+02,6.776776931250000189e+02,6.954165081250000640e+02,7.303814318749999757e+02,7.755239249999999629e+02,8.084868499999998903e+02,8.375591937499998494e+02,8.644082750000000033e+02,8.964297562500000822e+02,9.511530937499999254e+02,9.886707187499999918e+02,1.007720837500000016e+03,1.067030712499999936e+03,1.084670768750000207e+03,9.768160062499999867e+02,9.260234625000000506e+02,1.059633256249999931e+03,1.215638337500000034e+03,1.276830712500000118e+03,1.304006812500000024e+03,1.314748643749999928e+03,nan,nan,nan,nan,nan,nan,nan,nan,nan,nan,nan,nan,nan,nan,nan,nan,nan,nan,nan,nan,nan,nan,nan,nan,nan,nan,nan,nan,nan,nan,nan,nan,nan,nan
nan,nan,nan,nan,nan,nan,nan,nan,nan,nan,nan,nan,nan,nan,nan,nan,nan,1.733212825000000066e+03,1.690933056249999936e+03,1.663249806249999892e+03,1.584961775000000216e+03,1.433529150000000072e+03,1.272184118749999925e+03,1.144865656250000029e+03,1.027119262499999877e+03,9.451106999999999516e+02,9.082089499999999589e+02,8.845467187499999682e+02,8.727985687500000722e+02,8.563386874999999918e+02,8.311838874999999689e+02,8.204470937500000218e+02,8.561010687499999676e+02,9.007662937499999316e+02,8.930329500000000280e+02,9.005108250000000680e+02,9.316998312500001020e+02,9.121517312500000116e+02,8.644850062500000831e+02,8.324769687499999691e+02,8.141309625000000096e+02,7.977315562500000397e+02,7.881938437500000418e+02,7.835951312500001222e+02,7.730877312500000471e+02,7.593944187499998861e+02,7.438166312499998867e+02,7.302696499999999560e+02,7.205140787499999533e+02,7.099957981249999648e+02,7.009678043750000143e+02,6.935428612499999872e+02,6.859689043749999655e+02,6.792283156250000502e+02,6.738654249999999593e+02,6.702761393749999570e+02,6.680666118750000351e+02,6.678919587499999579e+02,6.695326093749999927e+02,6.696049337499999865e+02,6.675949418750000177e+02,6.660956443750000062e+02,6.654591562499999782e+02,6.641658106249999491e+02,6.620532568749999882e+02,6.603336043750000499e+02,6.589641856250000274e+02,6.571318449999999984e+02,6.551600818750000599e+02,6.539088100000000168e+02,6.527987174999999525e+02,6.512123081249999359e+02,6.499346100000000206e+02,6.485821343750000096e+02,6.466701975000000857e+02,6.449639400000000933e+02,6.437894787499999438e+02,6.424653581249999661e+02,6.413501825000000736e+02,6.414354056249999303e+02,6.419361225000000104e+02,6.425985249999999951e+02,6.439161112499999717e+02,6.459418156250000038e+02,6.484880550000000312e+02,6.513172081249999792e+02,6.541912556249999398e+02,6.569336849999999686e+02,6.600708881250000104e+02,6.640532056250000323e+02,6.694922931249999465e+02,6.779230975000000399e+02,6.919924949999999626e+02,7.201462437499999396e+02,7.579799218749999454e+02,7.848441068749999658e+02,8.119897012500000528e+02,8.503185124999999971e+02,9.030895437499999616e+02,9.468937499999999545e+02,9.598560062499998367e+02,1.004205174999999940e+03,1.071799125000000004e+03,1.029643262499999992e+03,9.145120249999999942e+02,9.409465312500000209e+02,1.087469118750000007e+03,1.195234975000000077e+03,1.253886387500000183e+03,1.294653981250000015e+03,nan,nan,nan,nan,nan,nan,nan,nan,nan,nan,nan,nan,nan,nan,nan,nan,nan,nan,nan,nan,nan,nan,nan,nan,nan,nan,nan,nan,nan,nan,nan,nan,nan,nan,nan
nan,nan,nan,nan,nan,nan,nan,nan,nan,nan,nan,nan,nan,nan,nan,nan,nan,1.886374000000000024e+03,1.858380249999999933e+03,1.811811562499999809e+03,1.683846437499999865e+03,1.489748681249999890e+03,1.301568506249999928e+03,1.141460412499999848e+03,9.964590249999999969e+02,9.190577187500000491e+02,8.957476874999999836e+02,8.728185875000000351e+02,8.566095625000000382e+02,8.454080937500000346e+02,8.280182875000000422e+02,8.265351312500000631e+02,8.720478562499999953e+02,9.153479937500001142e+02,9.208464812500000107e+02,9.398512062500000184e+02,9.441896187500001361e+02,8.958863000000000056e+02,8.501072187499999018e+02,8.304281375000000480e+02,8.146004312499999287e+02,7.946466625000000477e+02,7.831432999999999538e+02,7.773335187500000529e+02,7.644717437499999733e+02,7.477695312500000000e+02,7.329171750000000429e+02,7.251466687499998898e+02,7.189484887500000241e+02,7.062356556249999358e+02,6.954374662499999431e+02,6.904330562499999360e+02,6.851300299999999197e+02,6.779718531249999387e+02,6.715702062499999556e+02,6.677179256249999071e+02,6.656730512499999577e+02,6.657212674999999535e+02,6.674641824999999926e+02,6.674653218750000860e+02,6.654312000000001035e+02,6.637232293750000736e+02,6.629081443750000062e+02,6.620750174999999444e+02,6.604751106249999566e+02,6.587403837500000918e+02,6.573811450000000605e+02,6.558004181250000784e+02,6.538593262499999810e+02,6.524209049999999479e+02,6.513820474999999988e+02,6.500819881249999526e+02,6.489152612499999577e+02,6.477688206249999894e+02,6.460844074999999975e+02,6.443613643749999937e+02,6.431626068749999376e+02,6.423019249999999829e+02,6.415644931249998990e+02,6.411301312499999767e+02,6.412344074999999748e+02,6.421539187500000025e+02,6.440021825000001172e+02,6.465099975000000541e+02,6.493145375000000286e+02,6.522818043749999788e+02,6.552369562499999347e+02,6.582335450000000492e+02,6.615828237499999886e+02,6.654190887500000144e+02,6.702903787499999453e+02,6.770369256250000944e+02,6.876508943750000071e+02,7.043498218749999751e+02,7.257235093750000487e+02,7.535704700000001139e+02,8.087440087500001482e+02,8.682721000000000231e+02,8.954263250000000198e+02,9.169929124999999885e+02,9.562364187499999844e+02,1.009073356249999961e+03,1.021671981249999931e+03,9.481716437499999302e+02,8.947338937499999929e+02,9.666324187499999425e+02,1.060996806249999963e+03,1.117696168749999970e+03,1.193839400000000069e+03,1.263611562499999764e+03,nan,nan,nan,nan,nan,nan,nan,nan,nan,nan,nan,nan,nan,nan,nan,nan,nan,nan,nan,nan,nan,nan,nan,nan,nan,nan,nan,nan,nan,nan,nan,nan,nan,nan,nan
nan,nan,nan,nan,nan,nan,nan,nan,nan,nan,nan,nan,nan,nan,nan,nan,nan,1.904128518750000012e+03,1.841817725000000110e+03,1.790835893750000196e+03,1.659894418750000114e+03,1.463196187499999951e+03,1.266618556249999983e+03,1.096627581249999821e+03,9.692510125000000016e+02,9.088172875000000204e+02,8.902519875000000411e+02,8.703176624999999831e+02,8.501672312499999862e+02,8.423734562500000038e+02,8.425970750000000180e+02,8.536426125000000411e+02,8.866481062499999553e+02,9.152746124999999893e+02,9.275212062499999774e+02,9.480094749999999522e+02,9.409076062500000717e+02,8.808879750000000968e+02,8.325861625000000004e+02,8.188488812499999767e+02,8.126207812500000500e+02,8.019865000000000919e+02,7.861426875000000791e+02,7.716276874999999791e+02,7.589886999999999944e+02,7.416425687500000095e+02,7.246858762499999784e+02,7.169419037499999376e+02,7.116483487499999683e+02,7.021040381249999882e+02,6.920634824999999637e+02,6.855793824999999515e+02,6.804848118749999912e+02,6.745559712499999705e+02,6.689787431249999372e+02,6.653532374999999774e+02,6.636025787500000206e+02,6.638976324999999861e+02,6.654957381250000026e+02,6.654756987499999923e+02,6.635499843750000082e+02,6.617723425000000361e+02,6.607490737499999796e+02,6.601346412499999587e+02,6.591598687499999869e+02,6.574922093750000158e+02,6.558016018749999603e+02,6.541563237499999559e+02,6.525490768749998551e+02,6.514201600000000099e+02,6.505143000000000484e+02,6.492423525000000382e+02,6.476722637499999564e+02,6.464832393750000392e+02,6.453432193749999897e+02,6.437275737499999195e+02,6.424365181250000205e+02,6.419377074999999877e+02,6.413453649999999016e+02,6.405122937499999125e+02,6.405780518750000283e+02,6.419379643750000923e+02,6.443209775000000263e+02,6.471370606250000037e+02,6.498102156249999553e+02,6.525683712499999274e+02,6.555416543750000073e+02,6.587736612499999183e+02,6.623459350000000541e+02,6.660115075000001070e+02,6.701509656250000262e+02,6.754362587499999790e+02,6.848515868749999527e+02,7.000576599999999416e+02,7.223661281249999320e+02,7.660453881250000450e+02,8.321011637500000688e+02,8.665255437499999971e+02,8.668748687500000187e+02,9.118332874999999831e+02,9.887066499999999678e+02,1.006742212500000051e+03,9.405097937499999716e+02,8.818176062499999261e+02,9.035458999999999605e+02,9.611201437500000111e+02,1.002245112499999891e+03,1.053314925000000130e+03,1.145121193749999975e+03,nan,nan,nan,nan,nan,nan,nan,nan,nan,nan,nan,nan,nan,nan,nan,nan,nan,nan,nan,nan,nan,nan,nan,nan,nan,nan,nan,nan,nan,nan,nan,nan,nan,nan,nan,nan
nan,nan,nan,nan,nan,nan,nan,nan,nan,nan,nan,nan,nan,nan,nan,nan,nan,1.750704137499999888e+03,1.656898737500000152e+03,1.619612956250000025e+03,1.553744087499999978e+03,1.395964174999999841e+03,1.192098050000000057e+03,1.027647993749999841e+03,9.390949499999999261e+02,9.058582000000000107e+02,8.911447249999998803e+02,8.708602000000000771e+02,8.480601874999999836e+02,8.440600249999999960e+02,8.722916687499999853e+02,9.110651374999999916e+02,9.256975749999999152e+02,9.172461437500001011e+02,9.133621187500000360e+02,9.225218312499999911e+02,9.083358812500000568e+02,8.550297562500001050e+02,8.161063874999999825e+02,8.043895625000000109e+02,8.024185624999998936e+02,8.023732249999999340e+02,7.874501250000000709e+02,7.691210875000000442e+02,7.558539250000000038e+02,7.380583875000000944e+02,7.199756587500000933e+02,7.079351318750000246e+02,7.009045450000000983e+02,6.958581037500000548e+02,6.888570981250001068e+02,6.817817656250000482e+02,6.763255812500000275e+02,6.713021274999999832e+02,6.666418774999999641e+02,6.629741906249998920e+02,6.611439481249999517e+02,6.614150156250000236e+02,6.629542400000000271e+02,6.634198800000000347e+02,6.618528874999999516e+02,6.601289550000000190e+02,6.590903849999999693e+02,6.582640012499999784e+02,6.575132099999999582e+02,6.563584150000000363e+02,6.545649643749999314e+02,6.526083387500000299e+02,6.509912243750000016e+02,6.500122200000000703e+02,6.492953999999999724e+02,6.481089150000000245e+02,6.463747093749999522e+02,6.447874199999999973e+02,6.438612181250000503e+02,6.428904418749999650e+02,6.418442787499999440e+02,6.414504262499999641e+02,6.410260618749999821e+02,6.402379593749999458e+02,6.402269737500000701e+02,6.418026456249999683e+02,6.444729012500000636e+02,6.472716024999999718e+02,6.497593981249999615e+02,6.523850849999998900e+02,6.554904475000000730e+02,6.587873918750000257e+02,6.622246237500000916e+02,6.657543881249999913e+02,6.695384981249999328e+02,6.742377400000000307e+02,6.845283381250000048e+02,7.055757468749999362e+02,7.408183887500000537e+02,7.951241375000000744e+02,8.358674125000000004e+02,8.425126624999999194e+02,8.726555812500000684e+02,9.457919749999999794e+02,9.970642500000000155e+02,9.617421812499999305e+02,8.729171312500000113e+02,8.561338999999999260e+02,9.223023749999999836e+02,9.917018375000000106e+02,1.045307849999999917e+03,1.101790043749999995e+03,1.176383724999999913e+03,nan,nan,nan,nan,nan,nan,nan,nan,nan,nan,nan,nan,nan,nan,nan,nan,nan,nan,nan,nan,nan,nan,nan,nan,nan,nan,nan,nan,nan,nan,nan,nan,nan,nan,nan,nan
nan,nan,nan,nan,nan,nan,nan,nan,nan,nan,nan,nan,nan,nan,nan,nan,nan,1.656396212500000047e+03,1.534403706250000141e+03,1.464711074999999937e+03,1.405680043750000095e+03,1.287235349999999926e+03,1.122127062500000193e+03,9.921248500000000377e+02,9.315253749999999400e+02,9.097482499999999845e+02,8.911455062500000395e+02,8.703009312500000760e+02,8.488245875000000069e+02,8.428903874999998607e+02,8.926328812500000822e+02,9.648891812499999787e+02,9.679717562500001122e+02,9.130327937500001099e+02,8.833446124999999256e+02,8.876959625000000642e+02,8.726619249999999965e+02,8.321971187500000724e+02,8.090618312500000684e+02,7.989627187500000218e+02,7.932226687499999116e+02,7.958238624999999047e+02,7.851650687499999322e+02,7.657976125000000138e+02,7.486402312500000562e+02,7.314586874999999964e+02,7.161601449999999431e+02,7.029871012500000234e+02,6.949196062500000153e+02,6.908846775000000662e+02,6.846327724999999873e+02,6.778433724999999868e+02,6.728350718750000397e+02,6.683482281249999915e+02,6.642960075000000870e+02,6.607246774999999843e+02,6.587690343750000466e+02,6.588411925000000338e+02,6.603419487500000287e+02,6.612415237499999421e+02,6.600204143749999730e+02,6.583293724999999768e+02,6.572673737499999334e+02,6.561464349999999968e+02,6.552906718750000437e+02,6.546036831250000887e+02,6.531968943749999426e+02,6.514752968750000264e+02,6.498831756249999216e+02,6.485690993749999507e+02,6.477506200000000263e+02,6.469797062500000493e+02,6.456369818749999467e+02,6.436297618749999856e+02,6.422947918749999872e+02,6.417085175000000845e+02,6.408599356250000483e+02,6.406009631250000211e+02,6.405826725000000579e+02,6.399063006249999717e+02,6.399405462500000112e+02,6.416022956250000107e+02,6.441083556250000584e+02,6.467283718749999935e+02,6.493761843749999798e+02,6.523217506250000497e+02,6.554553306249999878e+02,6.584326925000000301e+02,6.614626675000000660e+02,6.648005893750000723e+02,6.689126462499999661e+02,6.744232175000000780e+02,6.839182262500000888e+02,7.026785906249999698e+02,7.351166925000001129e+02,7.792739375000001019e+02,8.116818000000000666e+02,8.410959625000000415e+02,9.028315312500001255e+02,9.555602499999999964e+02,9.359063499999999749e+02,8.667581062499999689e+02,8.362267000000001644e+02,8.769710000000000036e+02,9.608447125000000142e+02,1.063277487500000007e+03,1.137410912499999995e+03,1.178024931250000009e+03,1.214185331249999990e+03,nan,nan,nan,nan,nan,nan,nan,nan,nan,nan,nan,nan,nan,nan,nan,nan,nan,nan,nan,nan,nan,nan,nan,nan,nan,nan,nan,nan,nan,nan,nan,nan,nan,nan,nan,nan
nan,nan,nan,nan,nan,nan,nan,nan,nan,nan,nan,nan,nan,nan,nan,nan,nan,1.762219025000000101e+03,1.636498162499999808e+03,1.520069799999999759e+03,1.394010831249999910e+03,1.243589774999999918e+03,1.093543506250000064e+03,9.843006687499999998e+02,9.319236874999999145e+02,9.077269562499999438e+02,8.844511875000000600e+02,8.642523125000000164e+02,8.480386124999999993e+02,8.474848749999998745e+02,9.044665562500000533e+02,9.777640687500000922e+02,9.627334062500000300e+02,8.900804062500001237e+02,8.490548750000000382e+02,8.453891375000000608e+02,8.431226375000001099e+02,8.287789562500000784e+02,8.158289062500000455e+02,8.018091187499999251e+02,7.928156437499999356e+02,7.926934750000000349e+02,7.829703749999999900e+02,7.654590562499998896e+02,7.465559875000000147e+02,7.277333187499999667e+02,7.139519749999999476e+02,7.034578599999999824e+02,6.944948237500000232e+02,6.867536575000000312e+02,6.783594506250001359e+02,6.715282631250000804e+02,6.678804599999999709e+02,6.649616106249999348e+02,6.617513081249999232e+02,6.587499593749998894e+02,6.570804162500000984e+02,6.568902100000000246e+02,6.580591693750001241e+02,6.591783625000000484e+02,6.582075118749999092e+02,6.563656174999999848e+02,6.552064987499999233e+02,6.541727968749999036e+02,6.533099493749999738e+02,6.525513337499999125e+02,6.513743643749999137e+02,6.501811437500000466e+02,6.489889812499999380e+02,6.475720187499999838e+02,6.464724243749999459e+02,6.457930793750000475e+02,6.447253156249998938e+02,6.427405249999999342e+02,6.412282393750000438e+02,6.406706393750000643e+02,6.397863981250000052e+02,6.391509231249999630e+02,6.390167331249999734e+02,6.389732749999999442e+02,6.397732218749999902e+02,6.414799600000000055e+02,6.436511900000000423e+02,6.460367043749999993e+02,6.486894449999999779e+02,6.517741806249999854e+02,6.547159062499999891e+02,6.573899143749999894e+02,6.602876893750001273e+02,6.636351862500000607e+02,6.683517687500000193e+02,6.749486062500000116e+02,6.842585337499999696e+02,6.997328312500000038e+02,7.235003906250000227e+02,7.534086937500001113e+02,7.973875062500000013e+02,8.583685187500000211e+02,9.017983187500001350e+02,8.912843749999999545e+02,8.320388000000000375e+02,7.855586499999999432e+02,8.294692437500000324e+02,9.312574687500000437e+02,1.022030499999999961e+03,1.104625581250000096e+03,1.160840293750000001e+03,1.188209987500000125e+03,1.206126306249999971e+03,nan,nan,nan,nan,nan,nan,nan,nan,nan,nan,nan,nan,nan,nan,nan,nan,nan,nan,nan,nan,nan,nan,nan,nan,nan,nan,nan,nan,nan,nan,nan,nan,nan,nan,nan,nan
nan,nan,nan,nan,nan,nan,nan,nan,nan,nan,nan,nan,nan,nan,nan,nan,nan,nan,1.829569656250000207e+03,1.679680043750000095e+03,1.488292924999999968e+03,1.267269531250000000e+03,1.079331837500000120e+03,9.680481375000000526e+02,9.190822687500000256e+02,8.968085125000000062e+02,8.783855062499999349e+02,8.611070124999999962e+02,8.537503624999999374e+02,8.659407624999998916e+02,9.215406124999999520e+02,9.719244999999999663e+02,9.388650499999999965e+02,8.814669249999999465e+02,8.520076812500000187e+02,8.296613375000000588e+02,8.183205499999999120e+02,8.242389124999999694e+02,8.230322312499999953e+02,8.059337749999999687e+02,7.978415625000000091e+02,7.941536562500000400e+02,7.892910624999999527e+02,7.784275999999999840e+02,7.530355437499999880e+02,7.293237624999999298e+02,7.149762581249999585e+02,7.051101474999999255e+02,6.966102143749999414e+02,6.868531100000000151e+02,6.754943793750001078e+02,6.671085825000000114e+02,6.635134143749999112e+02,6.614699431249999861e+02,6.590262193749999824e+02,6.565914943749999111e+02,6.553095475000000079e+02,6.550458743750000394e+02,6.557875593750000007e+02,6.570594800000000077e+02,6.566080606249998937e+02,6.546413768749999917e+02,6.531493299999999635e+02,6.521422500000001037e+02,6.513318749999999682e+02,6.504717299999999796e+02,6.492857687499999884e+02,6.484219293749999906e+02,6.478317256249999900e+02,6.465929156249999323e+02,6.451675387500000625e+02,6.442538950000000568e+02,6.431921399999999949e+02,6.414458975000000009e+02,6.401162899999999354e+02,6.395777656249999836e+02,6.384017856250000023e+02,6.371308406250000189e+02,6.371869512499999928e+02,6.382742437499999824e+02,6.397265806249999969e+02,6.413387574999999288e+02,6.432558343749999494e+02,6.454973431250000431e+02,6.479716881250000142e+02,6.506390118750000511e+02,6.533355225000000246e+02,6.561880868749999536e+02,6.592511449999999513e+02,6.625321856250000110e+02,6.670813712499999610e+02,6.734399218749999818e+02,6.843293412499999704e+02,7.033143418749999682e+02,7.286591399999999794e+02,7.569144000000000005e+02,8.036250249999999369e+02,8.553148750000000291e+02,8.491702874999999722e+02,7.968421250000000100e+02,7.732725749999999607e+02,8.003523312499999065e+02,8.726777062499998010e+02,9.669855374999999640e+02,1.043688118750000058e+03,1.102149868750000223e+03,1.141581950000000234e+03,1.163153118749999976e+03,1.179644137499999943e+03,nan,nan,nan,nan,nan,nan,nan,nan,nan,nan,nan,nan,nan,nan,nan,nan,nan,nan,nan,nan,nan,nan,nan,nan,nan,nan,nan,nan,nan,nan,nan,nan,nan,nan,nan,nan
nan,nan,nan,nan,nan,nan,nan,nan,nan,nan,nan,nan,nan,nan,nan,nan,nan,nan,1.908562300000000050e+03,1.690932606249999935e+03,1.460225243750000118e+03,1.234798812499999940e+03,1.053660068749999937e+03,9.541341500000000906e+02,9.110766499999999724e+02,8.947770749999999680e+02,8.836342562500000213e+02,8.750538687499999924e+02,8.764694437499999822e+02,8.829674937500000169e+02,9.318106187500000033e+02,9.753490937500000655e+02,9.354958249999999680e+02,8.941401249999998981e+02,8.824743749999998954e+02,8.449681437499999674e+02,8.094876124999999547e+02,8.093288250000000517e+02,8.067737562499999058e+02,7.926389249999999720e+02,7.914603562499999043e+02,7.896419624999999769e+02,7.872272624999999380e+02,7.762286687499999971e+02,7.472862124999999196e+02,7.258148812499999849e+02,7.149929637499999444e+02,7.041210262499999999e+02,6.948160031249999520e+02,6.854894243749999987e+02,6.742276912500000208e+02,6.648769668749999937e+02,6.601165006249999578e+02,6.583245831250001174e+02,6.564548318750000817e+02,6.545453431250000449e+02,6.535754924999999957e+02,6.532774756250000792e+02,6.534379568750000544e+02,6.546259293750000552e+02,6.550368393749999996e+02,6.532067131249999647e+02,6.511756643749999967e+02,6.500540381250000337e+02,6.492023056250000081e+02,6.482742481249999855e+02,6.472797037500000670e+02,6.467585431249999601e+02,6.465281587499999887e+02,6.453867337499999621e+02,6.438377643750000061e+02,6.427824493750000556e+02,6.416971637499999588e+02,6.401725387499999442e+02,6.389594575000000987e+02,6.383162075000000186e+02,6.370119812499999625e+02,6.360819906250000031e+02,6.368509006249998947e+02,6.380745437499999753e+02,6.394065606249999973e+02,6.410072706250000465e+02,6.426935662500000035e+02,6.448242543750000095e+02,6.473472112500001003e+02,6.498624818750000713e+02,6.524954575000000432e+02,6.554841518749999523e+02,6.585085699999999633e+02,6.614643568750000213e+02,6.652231487500000640e+02,6.703482175000000325e+02,6.808770656249998865e+02,7.022347693750000417e+02,7.317878981250000834e+02,7.613573249999999462e+02,7.917233224999999948e+02,8.156460387499998888e+02,8.081810225000000401e+02,7.910839687499999400e+02,8.182039374999999382e+02,8.821067874999998821e+02,9.436259625000000142e+02,9.944905312500000036e+02,1.041520243750000191e+03,1.084175375000000031e+03,1.115212631249999959e+03,1.136318643749999865e+03,nan,nan,nan,nan,nan,nan,nan,nan,nan,nan,nan,nan,nan,nan,nan,nan,nan,nan,nan,nan,nan,nan,nan,nan,nan,nan,nan,nan,nan,nan,nan,nan,nan,nan,nan,nan,nan
nan,nan,nan,nan,nan,nan,nan,nan,nan,nan,nan,nan,nan,nan,nan,nan,nan,nan,1.888624475000000075e+03,1.620131381249999777e+03,1.380544349999999895e+03,1.182971199999999953e+03,1.029856512500000008e+03,9.460909500000000207e+02,9.134417437500000005e+02,9.041402000000000498e+02,8.944315874999999778e+02,8.927052812500000982e+02,8.974082187499999463e+02,8.876767937499998880e+02,9.246516625000000431e+02,9.750622937499999807e+02,9.478617750000000797e+02,9.102957812500000045e+02,8.914767374999998992e+02,8.507131687500000226e+02,8.220593625000000202e+02,8.153402749999999060e+02,7.991820500000000038e+02,7.803666937499999676e+02,7.741498874999999771e+02,7.722353187500000331e+02,7.657155062499998621e+02,7.540413062500000478e+02,7.350655312500000491e+02,7.179241287499999089e+02,7.087301106249999521e+02,6.989661131249998789e+02,6.875659868750000214e+02,6.775448693749999620e+02,6.691384031250000817e+02,6.616562637499999937e+02,6.570898093749999589e+02,6.555493149999999787e+02,6.541234112500001174e+02,6.527628831250001440e+02,6.519288287500000934e+02,6.513601193750000675e+02,6.510867524999999887e+02,6.523993287499999951e+02,6.534901418750000630e+02,6.516974999999999909e+02,6.492722268750000012e+02,6.482182662499999424e+02,6.474536306249999598e+02,6.464428706249999550e+02,6.456184168749999799e+02,6.451632506250000461e+02,6.448808143749999999e+02,6.439782087500000216e+02,6.426174181249999720e+02,6.414356900000000223e+02,6.400506606249999777e+02,6.385797531249999111e+02,6.372913893749999943e+02,6.365221024999999599e+02,6.364500137499999255e+02,6.367883693750000020e+02,6.373441975000000639e+02,6.378780750000000808e+02,6.389846506250000857e+02,6.405124143750000485e+02,6.419355237500001294e+02,6.438995456249999734e+02,6.465094599999999900e+02,6.492076000000000704e+02,6.518776468749999822e+02,6.548247281249999787e+02,6.577943918749999739e+02,6.606780431250000447e+02,6.641104525000000649e+02,6.688521487499999694e+02,6.782490568749999511e+02,6.986942349999999351e+02,7.282969399999999496e+02,7.553684124999999767e+02,7.697187762500000190e+02,7.877058650000000171e+02,8.214151200000000017e+02,8.535878687499998705e+02,8.867729562499999929e+02,9.280329125000000658e+02,9.710581125000001066e+02,1.006910843750000140e+03,1.033230000000000018e+03,1.055793343750000076e+03,1.080178331250000156e+03,1.103680993749999743e+03,nan,nan,nan,nan,nan,nan,nan,nan,nan,nan,nan,nan,nan,nan,nan,nan,nan,nan,nan,nan,nan,nan,nan,nan,nan,nan,nan,nan,nan,nan,nan,nan,nan,nan,nan,nan,nan
nan,nan,nan,nan,nan,nan,nan,nan,nan,nan,nan,nan,nan,nan,nan,nan,2.118647062500000175e+03,2.000580562500000042e+03,1.831127924999999777e+03,1.621368062499999724e+03,1.409871599999999944e+03,1.206520718750000015e+03,1.039684018749999950e+03,9.477111999999999625e+02,9.242237312500000144e+02,9.238972625000000107e+02,9.032431562499999700e+02,8.885646750000000793e+02,8.880352749999999560e+02,8.827239374999999200e+02,9.192401187499999651e+02,9.696093812499999558e+02,9.615801249999999527e+02,9.296219999999999573e+02,8.882117499999999382e+02,8.395933499999999867e+02,8.273576000000000477e+02,8.284176875000000564e+02,8.108113812500000677e+02,7.843601249999999254e+02,7.616941125000000739e+02,7.509675687499999412e+02,7.450414562500000102e+02,7.420265125000000808e+02,7.323195187500000429e+02,7.145252887500000725e+02,7.031021168749999788e+02,6.942193706250000105e+02,6.822249743749999880e+02,6.711659156250000251e+02,6.635786293749999913e+02,6.580708193749999282e+02,6.548143912499999715e+02,6.531726475000000391e+02,6.519213374999999360e+02,6.508525637499999448e+02,6.500128875000000335e+02,6.492794693749999624e+02,6.491653462499999705e+02,6.507617224999999053e+02,6.517411462500000425e+02,6.498929818750000322e+02,6.475986656249999669e+02,6.466359593749999704e+02,6.459585662500001035e+02,6.449414956250000159e+02,6.441596700000000055e+02,6.436420081249999612e+02,6.434357406249999940e+02,6.430246281249999356e+02,6.418498093749999498e+02,6.403605387499999324e+02,6.384526162500000055e+02,6.368574481250000190e+02,6.353939831249999770e+02,6.345699624999999742e+02,6.359716406249999636e+02,6.372776693750000732e+02,6.372556587500000660e+02,6.374345893750000869e+02,6.384710362499999974e+02,6.398221293750000314e+02,6.411463899999999967e+02,6.430080056250000098e+02,6.455279874999999947e+02,6.482945606250000310e+02,6.509971287500000017e+02,6.538891056249999565e+02,6.569388699999999517e+02,6.599344650000000456e+02,6.631193200000000161e+02,6.679621743749999041e+02,6.785844599999999218e+02,6.989435406249999687e+02,7.244710187499999847e+02,7.492929812499999116e+02,7.667892662499999687e+02,7.858482012500001019e+02,8.165733412500001123e+02,8.539548937499999965e+02,8.973754874999999629e+02,9.337110312500000191e+02,9.602179187500000808e+02,9.849869687499999600e+02,1.008606993749999901e+03,1.027623481249999941e+03,1.047809506250000140e+03,1.068565731249999999e+03,nan,nan,nan,nan,nan,nan,nan,nan,nan,nan,nan,nan,nan,nan,nan,nan,nan,nan,nan,nan,nan,nan,nan,nan,nan,nan,nan,nan,nan,nan,nan,nan,nan,nan,nan,nan,nan
nan,nan,nan,nan,nan,nan,nan,nan,nan,nan,nan,nan,nan,nan,nan,2.003746556250000140e+03,1.984251437500000293e+03,1.848966687500000035e+03,1.716765643749999981e+03,1.582156806250000045e+03,1.418033293749999984e+03,1.231943556250000256e+03,1.068235662499999762e+03,9.672717625000000226e+02,9.460232499999999618e+02,9.495471312499998930e+02,9.107356687499999452e+02,8.767284500000000662e+02,8.775715062499999704e+02,8.927263562499999807e+02,9.296535249999999451e+02,9.607300187499998856e+02,9.494492249999999558e+02,9.262181500000001506e+02,8.832886499999999614e+02,8.185469250000001011e+02,8.032377812500001255e+02,8.191009874999999738e+02,8.060430312500000127e+02,7.766065125000000080e+02,7.515950000000000273e+02,7.384766500000000633e+02,7.365319062500000200e+02,7.379450062500000058e+02,7.316390312500000164e+02,7.163651225000000977e+02,7.033767162499999586e+02,6.899478149999999914e+02,6.767810949999999366e+02,6.675920862499999657e+02,6.597409625000000233e+02,6.549658443749999606e+02,6.528291600000000017e+02,6.512883018750000019e+02,6.500625868750000791e+02,6.491154137500000161e+02,6.483487274999999954e+02,6.475976387499999873e+02,6.478377231249999113e+02,6.494320581249999123e+02,6.497699643749999723e+02,6.480567118750000191e+02,6.462607006250000268e+02,6.452522125000000415e+02,6.444990812500000175e+02,6.434565062499999613e+02,6.426936543749999373e+02,6.423112437500000169e+02,6.422456212499999992e+02,6.421966412499999706e+02,6.412172037499999533e+02,6.394877431249999518e+02,6.372332668750000266e+02,6.354712018750000198e+02,6.345990781250000055e+02,6.344524093749998883e+02,6.358735468749999882e+02,6.369564362500000243e+02,6.367957824999999730e+02,6.370098081250000632e+02,6.379589087500000915e+02,6.392851556250000158e+02,6.408127837499999941e+02,6.426973506250000128e+02,6.450326706250000370e+02,6.477228962500000762e+02,6.504398631249999880e+02,6.531028056249999736e+02,6.559493456249999781e+02,6.586796168749999651e+02,6.610222712499999034e+02,6.647531106249998629e+02,6.740835349999999835e+02,6.929037981249999802e+02,7.157852981249999402e+02,7.372892500000000382e+02,7.556058125000000700e+02,7.723703500000000304e+02,7.913273812500000304e+02,8.189498874999999316e+02,8.635182374999999411e+02,9.072995624999999791e+02,9.331970499999999902e+02,9.573673562500000571e+02,9.897977187500000582e+02,1.012674693749999960e+03,1.027483781249999993e+03,1.043709456249999903e+03,nan,nan,nan,nan,nan,nan,nan,nan,nan,nan,nan,nan,nan,nan,nan,nan,nan,nan,nan,nan,nan,nan,nan,nan,nan,nan,nan,nan,nan,nan,nan,nan,nan,nan,nan,nan,nan
nan,nan,nan,nan,nan,nan,nan,nan,nan,nan,nan,nan,nan,nan,1.776541275000000041e+03,1.823658962499999916e+03,1.888044737500000110e+03,1.812812437499999987e+03,1.657806849999999940e+03,1.484792268749999948e+03,1.323286706249999952e+03,1.187881556249999903e+03,1.074988493749999861e+03,9.850568562500000098e+02,9.616258875000000899e+02,9.660581937499999867e+02,9.208012749999999187e+02,8.800460249999999860e+02,8.915332999999999402e+02,9.278738312499999665e+02,9.484609000000000378e+02,9.398781249999999545e+02,9.074665500000000975e+02,8.789039312500000278e+02,8.475605375000000095e+02,7.916849624999999833e+02,7.755663687499999241e+02,8.007314874999999574e+02,7.918475624999999809e+02,7.598943249999999807e+02,7.423225562499999342e+02,7.398843499999999267e+02,7.402720187500000293e+02,7.343502062500000420e+02,7.290454937499999915e+02,7.179407149999999547e+02,7.001399068749999515e+02,6.824039800000000469e+02,6.694734762499999761e+02,6.626579418750000059e+02,6.562421218750000662e+02,6.523049531249999973e+02,6.508346512499999790e+02,6.496359218750001219e+02,6.485145768750001025e+02,6.477328743749999376e+02,6.470850118749999638e+02,6.464173450000000685e+02,6.470061624999999594e+02,6.484130537500000173e+02,6.481128631249999899e+02,6.464435962499999277e+02,6.449540187499999320e+02,6.438804012499999772e+02,6.430736293749999959e+02,6.420625287499999558e+02,6.412559499999999844e+02,6.409762306249999710e+02,6.409199237499999526e+02,6.408485474999999951e+02,6.399645299999999679e+02,6.383101374999999962e+02,6.361572231249999732e+02,6.344271412499999769e+02,6.343553706249999777e+02,6.350878206249999494e+02,6.360493418749999819e+02,6.363984850000000506e+02,6.361224693750000370e+02,6.365999787499999911e+02,6.377753012499999841e+02,6.392986925000000156e+02,6.410940574999999626e+02,6.430311162499999682e+02,6.451119006249998620e+02,6.474748374999999214e+02,6.499781418750000057e+02,6.523693275000000540e+02,6.546870924999999488e+02,6.567556868750000376e+02,6.583330449999998564e+02,6.609746618750000380e+02,6.682034462499999563e+02,6.835331068749999304e+02,7.053051700000000892e+02,7.246866506250000839e+02,7.393820124999999734e+02,7.641218687499999760e+02,7.982635999999999967e+02,8.133270937499999036e+02,8.251687624999999571e+02,8.642252250000000231e+02,9.008858625000000302e+02,9.268015562499999760e+02,9.573260249999999587e+02,9.849717249999999922e+02,1.000848118749999912e+03,nan,nan,nan,nan,nan,nan,nan,nan,nan,nan,nan,nan,nan,nan,nan,nan,nan,nan,nan,nan,nan,nan,nan,nan,nan,nan,nan,nan,nan,nan,nan,nan,nan,nan,nan,nan,nan,nan
nan,nan,nan,nan,nan,nan,nan,nan,nan,nan,nan,nan,nan,1.945423681250000072e+03,1.717614399999999932e+03,1.671167631249999886e+03,1.786035787499999969e+03,1.821226875000000064e+03,1.662974462499999845e+03,1.418404181250000192e+03,1.244331237500000043e+03,1.171275587499999801e+03,1.095832562499999995e+03,9.978731249999999591e+02,9.651095374999999876e+02,9.674902812500000664e+02,9.285598312500000020e+02,8.921675687499999867e+02,9.065835374999999203e+02,9.572509374999999636e+02,9.668499812500000417e+02,9.199423000000000457e+02,8.670297249999999849e+02,8.273018624999999702e+02,8.019721374999999171e+02,7.796848499999999831e+02,7.750093812499999331e+02,7.916279874999999038e+02,7.855677187500000400e+02,7.544633062500001870e+02,7.373153937500001120e+02,7.383515437500000189e+02,7.365094374999999900e+02,7.252437937500000089e+02,7.210105937499999982e+02,7.134312262500000088e+02,6.931363343749999331e+02,6.757125300000000152e+02,6.648106774999999971e+02,6.582050743749999810e+02,6.534866987499999595e+02,6.504810962500000642e+02,6.489899181250000311e+02,6.479556081250000261e+02,6.470443450000000212e+02,6.464117387500000405e+02,6.458266231249999691e+02,6.454882250000000568e+02,6.465337424999999030e+02,6.475591225000000577e+02,6.465137637499999528e+02,6.446993487500000128e+02,6.433729049999999461e+02,6.423673187499999813e+02,6.416814893749999555e+02,6.408109231250000448e+02,6.398597025000000258e+02,6.395523143749999235e+02,6.395629099999999880e+02,6.393399231249999275e+02,6.385497193749999951e+02,6.372232893749999221e+02,6.353821256250000715e+02,6.338685081249999484e+02,6.340028012499999477e+02,6.348429806249999956e+02,6.355214874999999211e+02,6.356958668749999788e+02,6.355405137500000592e+02,6.362436831249999614e+02,6.377941974999998820e+02,6.396516431249999641e+02,6.415900050000000192e+02,6.433730299999999716e+02,6.450631468749999158e+02,6.470032718749998821e+02,6.491403087500000311e+02,6.511824500000000171e+02,6.528744000000000369e+02,6.543542262500000106e+02,6.556461481249999679e+02,6.576355587499999729e+02,6.646315949999999475e+02,6.758296268750000309e+02,6.897413225000000239e+02,7.090040218750000349e+02,7.297623874999999316e+02,7.563828625000001011e+02,7.879888500000000704e+02,8.009227499999999509e+02,8.078051375000000007e+02,8.445635249999999132e+02,8.791993937499998992e+02,8.856033687499999587e+02,8.940438812499999131e+02,9.271855937499999527e+02,9.629536437500000829e+02,nan,nan,nan,nan,nan,nan,nan,nan,nan,nan,nan,nan,nan,nan,nan,nan,nan,nan,nan,nan,nan,nan,nan,nan,nan,nan,nan,nan,nan,nan,nan,nan,nan,nan,nan,nan,nan,nan
nan,nan,nan,nan,nan,nan,nan,nan,nan,nan,nan,nan,2.034213999999999942e+03,1.885463874999999916e+03,1.678711675000000014e+03,1.557254306249999900e+03,1.616802193750000242e+03,1.675233725000000049e+03,1.549253200000000106e+03,1.339426087499999994e+03,1.250161524999999983e+03,1.247804106250000132e+03,1.155327106250000043e+03,1.017767949999999928e+03,9.668995687500000713e+02,9.588189437499999030e+02,9.260664500000000317e+02,8.963401062500000762e+02,9.048651875000000473e+02,9.614371999999999616e+02,9.801016187500000569e+02,9.171407937500000571e+02,8.499266124999999192e+02,8.130373250000000098e+02,7.994528999999999996e+02,7.978593124999999873e+02,7.964489812499999744e+02,7.945267875000000686e+02,7.801806812500001342e+02,7.510364250000001221e+02,7.349182500000000573e+02,7.292124256250000371e+02,7.195268762499999866e+02,7.104216512499999681e+02,7.068206556250000858e+02,7.039408631250000781e+02,6.903686774999999898e+02,6.727926956249999648e+02,6.617185487499999681e+02,6.556566474999999627e+02,6.517612768750000214e+02,6.492337581250000085e+02,6.475535649999999350e+02,6.465896937500000377e+02,6.457337293750000526e+02,6.450665887500000508e+02,6.444979106250000314e+02,6.444612512500000321e+02,6.456989025000000311e+02,6.462486912500000926e+02,6.447416493749999518e+02,6.428774131249999755e+02,6.416382962499999394e+02,6.407940231249999670e+02,6.403381756249999626e+02,6.397236800000000585e+02,6.387125868750000564e+02,6.381623406250000698e+02,6.380839581249999810e+02,6.378039837500000431e+02,6.371703918749999502e+02,6.361631718749999891e+02,6.344203618750000260e+02,6.330767337499999030e+02,6.336893556249999619e+02,6.345846618750000516e+02,6.347701887499999884e+02,6.349387143750000178e+02,6.352132775000000038e+02,6.361205931250000276e+02,6.378119999999998981e+02,6.396505387499998960e+02,6.413048981249999088e+02,6.429144056249999721e+02,6.445154993749999903e+02,6.462119887499999322e+02,6.479804424999999810e+02,6.495793262500000083e+02,6.508831824999999753e+02,6.521235068750000892e+02,6.530915506250000817e+02,6.539625431250000247e+02,6.591726824999999508e+02,6.666922662500001024e+02,6.713427956250000079e+02,6.849196356249999553e+02,7.061533325000000332e+02,7.291097943749999786e+02,7.542485881249999693e+02,7.754541750000000775e+02,7.956639187499999935e+02,8.249323187499999221e+02,8.478135062499999322e+02,8.401194749999999658e+02,8.340798312499999838e+02,8.669084062499999845e+02,9.237402749999999969e+02,nan,nan,nan,nan,nan,nan,nan,nan,nan,nan,nan,nan,nan,nan,nan,nan,nan,nan,nan,nan,nan,nan,nan,nan,nan,nan,nan,nan,nan,nan,nan,nan,nan,nan,nan,nan,nan,nan
nan,nan,nan,nan,nan,nan,nan,nan,nan,nan,nan,nan,1.801396731250000130e+03,1.720019150000000081e+03,1.603654125000000022e+03,1.488728181250000034e+03,1.449559912500000110e+03,1.442279968750000080e+03,1.357962375000000065e+03,1.285090312499999982e+03,1.317883049999999912e+03,1.314126299999999901e+03,1.181075937499999782e+03,1.031610331249999945e+03,9.664244062499999472e+02,9.431459374999999454e+02,9.128775687500001368e+02,8.891042875000000549e+02,9.006932500000000346e+02,9.680854062500000055e+02,9.990686062500000162e+02,9.319811624999999822e+02,8.509699687500001346e+02,8.185062437500000669e+02,8.243248499999999694e+02,8.320043687500000260e+02,8.245894624999999678e+02,8.012290062499999976e+02,7.663319250000000693e+02,7.377922624999998789e+02,7.318349499999999352e+02,7.269419399999999314e+02,7.099750549999998839e+02,6.988991468749999285e+02,6.941949412500000562e+02,6.938849824999999782e+02,6.869595693750000009e+02,6.704791231249998873e+02,6.586816899999998896e+02,6.530808512500000234e+02,6.500119531250001046e+02,6.479016893750000463e+02,6.465094668750000437e+02,6.456305587499999774e+02,6.445314356250000856e+02,6.436929612500000530e+02,6.431963212499999827e+02,6.432999174999999923e+02,6.443288300000001527e+02,6.445177306250000129e+02,6.430879706250000254e+02,6.413739968749999889e+02,6.401028306250000242e+02,6.392695681249999780e+02,6.388572587500000282e+02,6.384866799999999785e+02,6.377362306250000756e+02,6.370199237500000891e+02,6.366664206250000007e+02,6.363140981249999868e+02,6.357810675000000629e+02,6.350020950000000539e+02,6.337629550000000336e+02,6.330122618749999219e+02,6.336886487500000840e+02,6.344507693750000499e+02,6.343643675000000712e+02,6.341731387500000210e+02,6.346792818750000151e+02,6.359356662500000539e+02,6.375775906249999707e+02,6.390010387499999069e+02,6.401963337499998943e+02,6.418608675000000403e+02,6.436559750000000122e+02,6.451400599999999486e+02,6.465634662500000331e+02,6.479145868750000545e+02,6.491943099999999731e+02,6.503322762500000636e+02,6.507559343750000380e+02,6.509411406250000027e+02,6.538913312500000075e+02,6.586287587500000882e+02,6.605239093750000166e+02,6.667626387499999510e+02,6.814970956249999290e+02,7.098964718749999747e+02,7.470134856249999302e+02,7.669785624999999527e+02,7.773991999999999507e+02,7.934755937499999163e+02,7.995758437499998763e+02,8.005863562500001080e+02,8.236880625000000009e+02,8.516408875000000762e+02,8.883194750000000113e+02,nan,nan,nan,nan,nan,nan,nan,nan,nan,nan,nan,nan,nan,nan,nan,nan,nan,nan,nan,nan,nan,nan,nan,nan,nan,nan,nan,nan,nan,nan,nan,nan,nan,nan,nan,nan,nan,nan
nan,nan,nan,nan,nan,nan,nan,nan,nan,nan,nan,1.789336562500000127e+03,1.681269400000000132e+03,1.598241074999999910e+03,1.528627918749999935e+03,1.450297431250000045e+03,1.371983781249999993e+03,1.321602137500000026e+03,1.292722031250000100e+03,1.321544012500000008e+03,1.363206812500000069e+03,1.287202318749999904e+03,1.140823612499999854e+03,1.026893212500000118e+03,9.672826624999999012e+02,9.326864687500000173e+02,9.029220749999999498e+02,8.848014749999999822e+02,9.036824624999999287e+02,9.818827249999999367e+02,1.023045056250000016e+03,9.577377750000001697e+02,8.652264375000000882e+02,8.287384187500000507e+02,8.447474062500000400e+02,8.616215312500000891e+02,8.542287437499999214e+02,8.126002187499998399e+02,7.566333687499999314e+02,7.268472812499999236e+02,7.228541974999999411e+02,7.186489050000000134e+02,7.034161462500001107e+02,6.917066499999998541e+02,6.876163531249999323e+02,6.853026162500000282e+02,6.780012068749999798e+02,6.657612706249999519e+02,6.562149650000000065e+02,6.512141400000000431e+02,6.490382275000000618e+02,6.471807787499999449e+02,6.458328362500000139e+02,6.446739118750000443e+02,6.432673531249999996e+02,6.422843337500000871e+02,6.419735168749999730e+02,6.423018037499999764e+02,6.430768175000000610e+02,6.429574731250000923e+02,6.415904524999999694e+02,6.400294518749999497e+02,6.388146418750000066e+02,6.379092981250000776e+02,6.372838118749999694e+02,6.368479831249999279e+02,6.363782031250000273e+02,6.358690706249999494e+02,6.354239062500000728e+02,6.349994212500000685e+02,6.344603793750000023e+02,6.337877556250000453e+02,6.335521612500000401e+02,6.336749831250000398e+02,6.337354806250000365e+02,6.340318387500000199e+02,6.339911331250000330e+02,6.336554881249999198e+02,6.343074781249999887e+02,6.356503306250000378e+02,6.369879187500000626e+02,6.381479168749999644e+02,6.392634906250000313e+02,6.408627443749999202e+02,6.425850118749999638e+02,6.438905143750000661e+02,6.450653743750000331e+02,6.463708862500000123e+02,6.477819162499999948e+02,6.487135375000000295e+02,6.486549962499999538e+02,6.488243881249999276e+02,6.503958750000000464e+02,6.532362331250000125e+02,6.566637381250000089e+02,6.629443093749999889e+02,6.756232712499999025e+02,7.007169174999999086e+02,7.367900193749999289e+02,7.564137218749999647e+02,7.619876062499999989e+02,7.672179499999999734e+02,7.604858124999998381e+02,7.787967312499999935e+02,8.386163125000000491e+02,8.632625500000000329e+02,8.669031499999999824e+02,nan,nan,nan,nan,nan,nan,nan,nan,nan,nan,nan,nan,nan,nan,nan,nan,nan,nan,nan,nan,nan,nan,nan,nan,nan,nan,nan,nan,nan,nan,nan,nan,nan,nan,nan,nan,nan,nan
nan,nan,nan,nan,nan,nan,nan,nan,nan,nan,1.997300750000000107e+03,1.874054406250000284e+03,1.781176793750000115e+03,1.666138699999999972e+03,1.539047587499999963e+03,1.453219037500000013e+03,1.397483856249999917e+03,1.351018212500000118e+03,1.345483562500000062e+03,1.373420618750000131e+03,1.346364462500000172e+03,1.224280156249999891e+03,1.094878706250000050e+03,1.018271762500000023e+03,9.808467749999999796e+02,9.475505437499999744e+02,9.113000687500000367e+02,8.905539687499999673e+02,9.082620562500000005e+02,9.861267250000000786e+02,1.037507900000000063e+03,9.789244062499999472e+02,8.868736312500000167e+02,8.608370062500000586e+02,8.796284375000000182e+02,8.830921937499999785e+02,8.645543749999999363e+02,8.175506000000000313e+02,7.611689437499999258e+02,7.374226812499999824e+02,7.286699887499999022e+02,7.117145256249998511e+02,6.944735968749998847e+02,6.862654231250000976e+02,6.834439187499999662e+02,6.767115812499999947e+02,6.677174968749999380e+02,6.598941506249999520e+02,6.538284462499999563e+02,6.507280187499999329e+02,6.490926168749999761e+02,6.472075275000000829e+02,6.456693987500000276e+02,6.441681075000000192e+02,6.424688831250000476e+02,6.412602024999999912e+02,6.410142818749999378e+02,6.415575268750000077e+02,6.421658656249999240e+02,6.417651837500000056e+02,6.403678812499999822e+02,6.387886249999999109e+02,6.375625131250000095e+02,6.366818587500000604e+02,6.358805125000000089e+02,6.352104787499999929e+02,6.347558656249999558e+02,6.343966512499999908e+02,6.340303550000000996e+02,6.338375631250000879e+02,6.332092587500000036e+02,6.322926287500000626e+02,6.327472762500000272e+02,6.334687506249999842e+02,6.333814712500000041e+02,6.335985743749999983e+02,6.336267587500001355e+02,6.334480456249999634e+02,6.341914162499999748e+02,6.352880643749999763e+02,6.361945987499999546e+02,6.372265068750000410e+02,6.384273618750000878e+02,6.399423343750000868e+02,6.415738781250000784e+02,6.427063687500000242e+02,6.435938875000000507e+02,6.447563293749999502e+02,6.460587500000000318e+02,6.468301406250000127e+02,6.468111956249999821e+02,6.471574462500000209e+02,6.482055718750000324e+02,6.504067206249999344e+02,6.546454537500000015e+02,6.627701250000000073e+02,6.746471481249999442e+02,6.880829137499999888e+02,7.056470774999999094e+02,7.226909812500000498e+02,7.373341356250000445e+02,7.426871062499999425e+02,7.429097624999999425e+02,7.686461937500000658e+02,8.168463500000000295e+02,8.356944187499999543e+02,8.373766624999999522e+02,nan,nan,nan,nan,nan,nan,nan,nan,nan,nan,nan,nan,nan,nan,nan,nan,nan,nan,nan,nan,nan,nan,nan,nan,nan,nan,nan,nan,nan,nan,nan,nan,nan,nan,nan,nan,nan,nan
nan,nan,nan,nan,nan,nan,nan,nan,nan,nan,2.056563062500000342e+03,2.049708875000000262e+03,2.014198624999999993e+03,1.850655087499999809e+03,1.627426699999999983e+03,1.469500006250000069e+03,1.410111512500000117e+03,1.391312837500000114e+03,1.382620149999999967e+03,1.374761943749999773e+03,1.310259524999999940e+03,1.196503462499999841e+03,1.091644387499999993e+03,1.018555462499999976e+03,9.923059937499999705e+02,9.722909875000000284e+02,9.284055624999999736e+02,8.993786000000000058e+02,9.199327749999999924e+02,9.969657999999999447e+02,1.040067450000000008e+03,9.743668562499999553e+02,8.983088250000000698e+02,9.006431687500000862e+02,9.182065625000000182e+02,8.894889874999998938e+02,8.426787562499999922e+02,8.014053812500000049e+02,7.679219250000001011e+02,7.601088312499998665e+02,7.549049787499999411e+02,7.229878556249999519e+02,6.941017706249999719e+02,6.845758531249998668e+02,6.787855931249999912e+02,6.693315306249999139e+02,6.616157343749999882e+02,6.567020718750000015e+02,6.524451281249999965e+02,6.501114949999999908e+02,6.484484575000000177e+02,6.468342775000000984e+02,6.455815737499999614e+02,6.440839081249999936e+02,6.421319699999999102e+02,6.406778806249999434e+02,6.404090599999999540e+02,6.408615443749999940e+02,6.410948937499999829e+02,6.404875562499998978e+02,6.391765537500000391e+02,6.375752812499999891e+02,6.362570068750000019e+02,6.353940225000000055e+02,6.346106706250000116e+02,6.339200356249999686e+02,6.333633212500000127e+02,6.328118318750000526e+02,6.324600931249999576e+02,6.324864881249999371e+02,6.319527462500000183e+02,6.313989193750001050e+02,6.321765175000000454e+02,6.328040112500000305e+02,6.327343818749999400e+02,6.330764312499999278e+02,6.333703143750000208e+02,6.332939331249999668e+02,6.337939131250000173e+02,6.346893274999999903e+02,6.353523381249999602e+02,6.361833618749999459e+02,6.373409056250000049e+02,6.389367975000000115e+02,6.406674981250000656e+02,6.415872231250000368e+02,6.421672931250000147e+02,6.430835524999999961e+02,6.439967562500000895e+02,6.446685749999999189e+02,6.451466649999999845e+02,6.458029762500000288e+02,6.468214368750000176e+02,6.486822718749999694e+02,6.524116212500000529e+02,6.592686343749999196e+02,6.672820437499999571e+02,6.750125399999999445e+02,6.836001262500000166e+02,6.938496343750000506e+02,7.069570475000000442e+02,7.154098306250000405e+02,7.289496481250000670e+02,7.556154937500000415e+02,7.758880312499999263e+02,7.813717374999998810e+02,7.951657749999999396e+02,nan,nan,nan,nan,nan,nan,nan,nan,nan,nan,nan,nan,nan,nan,nan,nan,nan,nan,nan,nan,nan,nan,nan,nan,nan,nan,nan,nan,nan,nan,nan,nan,nan,nan,nan,nan,nan,nan
nan,nan,nan,nan,nan,nan,nan,nan,nan,2.074805687499999749e+03,2.050710000000000036e+03,2.184580312500000218e+03,2.218829375000000255e+03,1.989222437500000069e+03,1.699218643750000183e+03,1.485437500000000000e+03,1.384430131250000159e+03,1.378301087499999994e+03,1.364707062500000120e+03,1.319750668749999932e+03,1.253428137500000048e+03,1.170795281250000016e+03,1.082915281249999907e+03,1.007298324999999977e+03,9.828926625000000286e+02,9.739393937499999083e+02,9.341002124999999978e+02,9.046426812500001233e+02,9.289986000000001241e+02,1.003334549999999922e+03,1.031371218749999798e+03,9.545744687500000509e+02,8.965742500000001201e+02,9.210788000000000011e+02,9.308291500000000269e+02,8.773574312500001042e+02,8.092532062499999483e+02,7.746401187500000560e+02,7.633944000000000187e+02,7.612580312499999309e+02,7.581239937499999542e+02,7.325998831249999057e+02,7.069130806249999068e+02,6.942950799999999845e+02,6.808916449999999259e+02,6.673940306249999139e+02,6.597709768750000876e+02,6.559800831249999646e+02,6.522506775000000516e+02,6.492229293750000352e+02,6.470597450000000208e+02,6.456723493749999534e+02,6.447440924999999652e+02,6.435333481249999750e+02,6.416214918749999470e+02,6.400341899999999669e+02,6.397395424999999705e+02,6.398614387499999339e+02,6.394700262500000463e+02,6.386955350000000635e+02,6.376408706250000478e+02,6.362155556249999790e+02,6.349274237500000027e+02,6.340064868750000642e+02,6.331967018750000307e+02,6.326084074999999984e+02,6.321224231250000685e+02,6.314753812500000549e+02,6.311761125000000447e+02,6.312510925000000270e+02,6.311664562500000102e+02,6.315929025000000365e+02,6.321081612500000801e+02,6.319643475000000308e+02,6.319128856250000581e+02,6.323479762499999879e+02,6.327804399999999987e+02,6.327817612499999314e+02,6.331451899999999569e+02,6.339633256250000386e+02,6.345334325000000035e+02,6.351578112500000088e+02,6.361441025000000309e+02,6.376677487499999870e+02,6.392879606249999824e+02,6.401640118750000283e+02,6.408136656249999987e+02,6.416728131249999478e+02,6.423702781249999134e+02,6.429418368749999217e+02,6.437620087499999499e+02,6.447468174999999064e+02,6.458641937500000267e+02,6.475881137500000477e+02,6.507972881250000228e+02,6.557061874999999418e+02,6.610384400000000369e+02,6.676733593750000182e+02,6.754191268749999608e+02,6.829596612499999537e+02,6.903608843750000688e+02,6.991545631250000952e+02,7.161201981250000017e+02,7.387389875000000075e+02,7.492817250000000513e+02,7.516924812500000144e+02,7.789919562499999302e+02,nan,nan,nan,nan,nan,nan,nan,nan,nan,nan,nan,nan,nan,nan,nan,nan,nan,nan,nan,nan,nan,nan,nan,nan,nan,nan,nan,nan,nan,nan,nan,nan,nan,nan,nan,nan,nan,nan
nan,nan,nan,nan,nan,2.171606187500000033e+03,2.095534749999999804e+03,2.075927062499999920e+03,2.067022437499999796e+03,2.002551812500000096e+03,2.008927874999999858e+03,2.219752687499999865e+03,2.326977125000000342e+03,2.081410687500000222e+03,1.748028193749999900e+03,1.509536906250000129e+03,1.376127162499999940e+03,1.336400412500000130e+03,1.283102362500000027e+03,1.205619968749999998e+03,1.158850893749999841e+03,1.111210393749999866e+03,1.042997412500000110e+03,9.875040875000000824e+02,9.710452000000001362e+02,9.641781062500000417e+02,9.303664750000000367e+02,9.067110999999999876e+02,9.388889874999999847e+02,1.010549275000000080e+03,1.029275287499999877e+03,9.508645874999998568e+02,9.009190312499999891e+02,9.357124312500000087e+02,9.377713687500000788e+02,8.668375062499999331e+02,7.908663437499999418e+02,7.577881750000000238e+02,7.537151812500000005e+02,7.449329749999999422e+02,7.401244187500000180e+02,7.409707874999999149e+02,7.308311581250000017e+02,7.108825956250000218e+02,6.869911918749999131e+02,6.672386456250001174e+02,6.582812787499999558e+02,6.549733049999999821e+02,6.517849875000000566e+02,6.486717206250000345e+02,6.459575993749999725e+02,6.440833250000000589e+02,6.431643118750000667e+02,6.424201293749999877e+02,6.408429918750000525e+02,6.391907599999999547e+02,6.386353631249999125e+02,6.384296443749999526e+02,6.376577775000000656e+02,6.368481512500000008e+02,6.361873781250000093e+02,6.349772968750000928e+02,6.336922043749999602e+02,6.326877875000000131e+02,6.317649400000000242e+02,6.312152875000000449e+02,6.309072925000000396e+02,6.305266325000000052e+02,6.305713068750000048e+02,6.311411387500000956e+02,6.316142118750000236e+02,6.318459781250001015e+02,6.315684206250000443e+02,6.311066037499999766e+02,6.312946400000000722e+02,6.320254993749999812e+02,6.322986362500000723e+02,6.320980825000000323e+02,6.324584893749999992e+02,6.332385487500000636e+02,6.338099231250000685e+02,6.343408412500000395e+02,6.351948831249999330e+02,6.364710575000000290e+02,6.376715475000000879e+02,6.385461350000000493e+02,6.394789281249999249e+02,6.404899812500000280e+02,6.412925299999999424e+02,6.418684475000000020e+02,6.428066781249999622e+02,6.440847381249999444e+02,6.454680056249999325e+02,6.471705050000000483e+02,6.499876799999999548e+02,6.550501074999999673e+02,6.613479318749999720e+02,6.670315500000000384e+02,6.717406399999999849e+02,6.778647956249999424e+02,6.852932993750000605e+02,6.954374375000001010e+02,7.097589643750000050e+02,7.231983937500000366e+02,7.316561187499999050e+02,7.466998562500000389e+02,7.875900500000000193e+02,nan,nan,nan,nan,nan,nan,nan,nan,nan,nan,nan,nan,nan,nan,nan,nan,nan,nan,nan,nan,nan,nan,nan,nan,nan,nan,nan,nan,nan,nan,nan,nan,nan,nan,nan,nan,nan,nan
nan,nan,nan,nan,2.380298749999999927e+03,2.312728937500000029e+03,2.154370562499999778e+03,2.048628999999999905e+03,1.981713187500000004e+03,1.897934206249999988e+03,1.911338412500000004e+03,2.139436893749999854e+03,2.304648000000000138e+03,2.127571750000000065e+03,1.783370325000000093e+03,1.505975837500000125e+03,1.365388649999999870e+03,1.303209100000000035e+03,1.204888018750000128e+03,1.114790612499999952e+03,1.088999481249999917e+03,1.060287043750000066e+03,1.015809106250000013e+03,9.891199687499999982e+02,9.806057187500000509e+02,9.607660687500001586e+02,9.244886937499999249e+02,9.120438937499999383e+02,9.590487999999999147e+02,1.031642800000000079e+03,1.039301056250000101e+03,9.624444874999999229e+02,9.152619937499999878e+02,9.456333937499999820e+02,9.365810625000000300e+02,8.569953874999999925e+02,7.831471187500000042e+02,7.491527499999999691e+02,7.454922187499998927e+02,7.384474500000000035e+02,7.318556131249999908e+02,7.393511681249999583e+02,7.383681468749998658e+02,7.203021243749999485e+02,6.906574462500000209e+02,6.654783818749999682e+02,6.562549356249999164e+02,6.532843431249999639e+02,6.503757506250000233e+02,6.475232150000000502e+02,6.447769250000000056e+02,6.425282531249999920e+02,6.413931806250000136e+02,6.409152256250000619e+02,6.397860312499999509e+02,6.381015868749999527e+02,6.369974300000000085e+02,6.365474093750000293e+02,6.359128156250000075e+02,6.353317362499999490e+02,6.349295787500000188e+02,6.338048068750000539e+02,6.325944349999999758e+02,6.317239074999999957e+02,6.307706887500000903e+02,6.300594231249999666e+02,6.297472225000000208e+02,6.297939337500000647e+02,6.304198893750000252e+02,6.315188168750000841e+02,6.322201750000000402e+02,6.318201812500000187e+02,6.311182906249999860e+02,6.308173193750000110e+02,6.310747906249999915e+02,6.319012368749999951e+02,6.320999556250000069e+02,6.317476331249999930e+02,6.319460174999999253e+02,6.325962181249999503e+02,6.331487268750000794e+02,6.336940300000001116e+02,6.345652206249999381e+02,6.355937900000001264e+02,6.364893462500000396e+02,6.373444606250000106e+02,6.383323525000000700e+02,6.394973943749999989e+02,6.405125906250000298e+02,6.411603331249999655e+02,6.421282443750000084e+02,6.434710243750000700e+02,6.448806337500000154e+02,6.462886681249999583e+02,6.490156581249999590e+02,6.548535106249998989e+02,6.617808868750000784e+02,6.661151475000000346e+02,6.693140943749999678e+02,6.753321362500000760e+02,6.825103081249999377e+02,6.905522193750000497e+02,7.020346299999999928e+02,7.146655512500001350e+02,7.304387125000000651e+02,7.663544875000000047e+02,8.279886624999999185e+02,nan,nan,nan,nan,nan,nan,nan,nan,nan,nan,nan,nan,nan,nan,nan,nan,nan,nan,nan,nan,nan,nan,nan,nan,nan,nan,nan,nan,nan,nan,nan,nan,nan,nan,nan,nan,nan,nan
nan,nan,nan,nan,nan,2.452430062500000076e+03,2.327469750000000204e+03,2.207753874999999880e+03,2.056548375000000306e+03,1.875310537500000009e+03,1.788663887500000101e+03,1.925205974999999853e+03,2.097907499999999800e+03,2.045071187499999724e+03,1.777561631250000119e+03,1.475705093749999833e+03,1.338191631250000000e+03,1.302975612499999897e+03,1.190447450000000117e+03,1.088121200000000044e+03,1.065086006250000082e+03,1.031924925000000030e+03,9.933110624999999345e+02,9.935247750000000906e+02,1.000866281250000043e+03,9.643641749999999320e+02,9.234684500000000753e+02,9.222454687500001000e+02,9.652239562500000147e+02,1.029281262500000139e+03,1.036206881250000151e+03,9.667903874999999516e+02,9.255434125000000449e+02,9.445972187500000246e+02,9.177425875000000133e+02,8.359820812499999647e+02,7.726238125000000991e+02,7.421274124999999913e+02,7.353350312499999291e+02,7.350921437499999911e+02,7.248584899999999607e+02,7.139366637499999797e+02,7.171706137500000295e+02,7.191314487500000041e+02,6.937402025000000094e+02,6.643477062499999874e+02,6.545141712500000040e+02,6.517621731250000039e+02,6.488412412500000528e+02,6.458064993750000440e+02,6.431820000000000164e+02,6.410339350000000422e+02,6.397178549999999859e+02,6.391443243749999965e+02,6.384019287500000246e+02,6.370807418750000579e+02,6.356623000000000729e+02,6.348880693749999864e+02,6.343524931249999099e+02,6.339405924999999797e+02,6.335886968749999824e+02,6.325430968750000602e+02,6.315375424999999723e+02,6.309239793750000445e+02,6.300401162499999828e+02,6.291827331249999133e+02,6.288774975000000040e+02,6.293012949999999819e+02,6.302255681249999952e+02,6.312265793750000284e+02,6.318244449999999688e+02,6.313200199999999995e+02,6.305413881250000259e+02,6.306340331250000872e+02,6.313160856249999142e+02,6.319101462500000252e+02,6.317782937499998752e+02,6.313969212499999912e+02,6.315670893750000232e+02,6.320848837500000172e+02,6.325036631250000028e+02,6.330661599999999680e+02,6.338968906249999691e+02,6.346765037499999380e+02,6.355158431250000604e+02,6.365052012500000274e+02,6.375107206249999763e+02,6.387303912499999115e+02,6.398978050000000621e+02,6.406825706249999257e+02,6.416042075000000295e+02,6.428282493750000413e+02,6.444945831250000765e+02,6.465063343750000513e+02,6.494532825000000003e+02,6.538204806250000729e+02,6.583148406249999880e+02,6.619099468749999460e+02,6.669025006249999024e+02,6.742079287499999509e+02,6.806645274999999629e+02,6.881339943749999293e+02,7.023949418750000859e+02,7.224705962500000851e+02,7.512875625000000355e+02,8.116012562500000058e+02,9.017069249999999556e+02,9.661410625000000891e+02,nan,nan,nan,nan,nan,nan,nan,nan,nan,nan,nan,nan,nan,nan,nan,nan,nan,nan,nan,nan,nan,nan,nan,nan,nan,nan,nan,nan,nan,nan,nan,nan,nan,nan,nan,nan,nan
nan,nan,nan,nan,nan,2.522633562500000153e+03,2.495954250000000229e+03,2.413658374999999978e+03,2.222457312500000171e+03,1.974857456250000268e+03,1.749034468749999860e+03,1.690584356249999928e+03,1.781723912499999869e+03,1.830610599999999977e+03,1.704913412499999822e+03,1.453732868749999852e+03,1.339531206249999968e+03,1.329713162499999953e+03,1.204779925000000048e+03,1.078289062500000000e+03,1.050583650000000034e+03,1.020202049999999872e+03,9.750180812500000229e+02,9.787655312500000946e+02,9.978783187500000622e+02,9.678142812500000218e+02,9.325623062499998923e+02,9.330763749999999845e+02,9.670978562499999498e+02,1.024673731249999946e+03,1.027775624999999991e+03,9.647692937500000880e+02,9.411013937499999429e+02,9.539290437500001190e+02,9.057417312500000435e+02,8.147148124999999936e+02,7.596192312499999844e+02,7.412981187500000715e+02,7.353863437499999236e+02,7.316201843749998943e+02,7.163328406250000171e+02,6.977434168749999799e+02,6.982714637499999526e+02,7.053298462499999459e+02,6.862901893750000681e+02,6.608481468749999976e+02,6.525289143749999994e+02,6.502512850000000526e+02,6.476737156249999998e+02,6.445593081250000296e+02,6.417874150000000100e+02,6.396275531249999631e+02,6.381935925000000225e+02,6.373548931249999896e+02,6.368130143749999661e+02,6.362765968749999956e+02,6.352475462499999139e+02,6.342029093749999902e+02,6.333103137499999775e+02,6.327088575000000219e+02,6.323578506249999691e+02,6.314608631250000599e+02,6.305214087499999778e+02,6.299563562499999989e+02,6.291914225000000442e+02,6.284760706250000339e+02,6.285039174999999432e+02,6.290505500000000438e+02,6.295921462500000416e+02,6.302391256250000424e+02,6.307104712499999550e+02,6.301232281249999687e+02,6.294789068750000069e+02,6.303813537500000166e+02,6.318092418749999979e+02,6.321649625000000015e+02,6.313954881250000426e+02,6.307010287499999777e+02,6.308815987500000801e+02,6.313751068750000286e+02,6.318280599999999367e+02,6.324520518749999383e+02,6.331132693749999589e+02,6.337381631250000282e+02,6.346553337499999543e+02,6.358200299999998606e+02,6.368857524999999669e+02,6.380421106249999639e+02,6.392195393749999539e+02,6.401032556249999743e+02,6.410745737500000132e+02,6.424613587500000449e+02,6.447495381250000719e+02,6.478502306249999947e+02,6.506735987499999965e+02,6.526893743749999430e+02,6.556497468750001190e+02,6.610859406249999211e+02,6.681356724999999415e+02,6.747907068749999553e+02,6.806999093749999474e+02,6.912895818750000672e+02,7.140678712500000529e+02,7.448258200000000215e+02,7.871689375000000837e+02,8.639705562500000724e+02,9.590769374999999854e+02,1.013464806250000038e+03,nan,nan,nan,nan,nan,nan,nan,nan,nan,nan,nan,nan,nan,nan,nan,nan,nan,nan,nan,nan,nan,nan,nan,nan,nan,nan,nan,nan,nan,nan,nan,nan,nan,nan,nan,nan,nan
nan,nan,nan,nan,nan,nan,2.557543749999999818e+03,2.477106312500000058e+03,2.300097624999999880e+03,2.061755500000000211e+03,1.797485550000000103e+03,1.583862293749999935e+03,1.520982118750000154e+03,1.566116199999999935e+03,1.537564262500000041e+03,1.410377262499999915e+03,1.372043956250000065e+03,1.354201956249999967e+03,1.214444750000000113e+03,1.073741331250000030e+03,1.032981706250000116e+03,1.017062187499999936e+03,9.742987312500000598e+02,9.563394250000001193e+02,9.620074687500000437e+02,9.501117687499998965e+02,9.351835312499999873e+02,9.410564062500000091e+02,9.794423500000000331e+02,1.035589549999999917e+03,1.024705550000000130e+03,9.709354124999999840e+02,9.743210874999999760e+02,9.750237812499999563e+02,8.992087937500000407e+02,8.015924687499999663e+02,7.538592937500000062e+02,7.491861562500000673e+02,7.510042937499999880e+02,7.413994312500000206e+02,7.276551887499999793e+02,7.150994062499999018e+02,6.960836674999998195e+02,6.829233300000000781e+02,6.697062124999999924e+02,6.554159031250001135e+02,6.503300137500000346e+02,6.484728475000000572e+02,6.463484874999999192e+02,6.435290956249999681e+02,6.408013143749999472e+02,6.384998974999999746e+02,6.367983668750000561e+02,6.357304074999999557e+02,6.352803362500000048e+02,6.352071668749999844e+02,6.346550962500000423e+02,6.337533650000000307e+02,6.327689837499999612e+02,6.319479881250000517e+02,6.314627706250000756e+02,6.305721593749999556e+02,6.295364737499999137e+02,6.289099562500000502e+02,6.282693912499998987e+02,6.278637431249999281e+02,6.283527756250000493e+02,6.285237525000000005e+02,6.280263393750000205e+02,6.285894843749999836e+02,6.296315656250000075e+02,6.294334781249999651e+02,6.291597537499999362e+02,6.304854506249999986e+02,6.319817750000000842e+02,6.320766150000000607e+02,6.310866231249999601e+02,6.301741581250000763e+02,6.301046712500000240e+02,6.305082312499999944e+02,6.311255668750000041e+02,6.318201924999999619e+02,6.324058674999999994e+02,6.330499281249999513e+02,6.339869643750000705e+02,6.351539706250000563e+02,6.362411856250000710e+02,6.373368962499999952e+02,6.384708887500000856e+02,6.394067012499999691e+02,6.405336350000000039e+02,6.421957806249999976e+02,6.445781099999999242e+02,6.474591443750000508e+02,6.499075887500000590e+02,6.517167950000000474e+02,6.556682124999999814e+02,6.635811618750000207e+02,6.718143587499999967e+02,6.773955112500000268e+02,6.837509306249999099e+02,6.981014268750000156e+02,7.276329168750000917e+02,7.674314124999999649e+02,8.224190250000000333e+02,9.035206312500000649e+02,9.815033624999999802e+02,1.022271718749999991e+03,nan,nan,nan,nan,nan,nan,nan,nan,nan,nan,nan,nan,nan,nan,nan,nan,nan,nan,nan,nan,nan,nan,nan,nan,nan,nan,nan,nan,nan,nan,nan,nan,nan,nan,nan,nan,nan
nan,nan,nan,nan,nan,nan,2.556392624999999498e+03,2.446857874999999694e+03,2.281563937500000065e+03,2.077831562500000018e+03,1.840068706250000105e+03,1.559392700000000104e+03,1.366654337500000111e+03,1.348114912499999946e+03,1.349844456249999894e+03,1.341059543749999875e+03,1.373260224999999991e+03,1.338768293750000112e+03,1.208697149999999965e+03,1.071196037499999875e+03,1.005090706250000039e+03,9.889239187499999844e+02,9.627913250000000289e+02,9.387444375000000036e+02,9.379861812500000724e+02,9.419052625000000489e+02,9.354757937500000935e+02,9.489992999999999483e+02,9.978592750000000251e+02,1.042238056249999772e+03,1.018553093750000016e+03,9.800877625000000535e+02,9.989538750000000391e+02,9.766517875000001823e+02,8.776547562499999913e+02,7.902115062500000704e+02,7.561772187500000655e+02,7.577932750000001079e+02,7.621432312499999853e+02,7.508447406249999858e+02,7.455309562500000311e+02,7.410209262500000023e+02,7.050452368750000005e+02,6.728570650000000342e+02,6.607578849999999875e+02,6.524370787499999551e+02,6.487136218749999443e+02,6.467785006249999924e+02,6.447290524999999661e+02,6.421605662499998743e+02,6.397088768749999872e+02,6.374489200000000437e+02,6.355583850000000439e+02,6.343919087499999705e+02,6.339806112500000381e+02,6.339136475000000246e+02,6.334967918750000990e+02,6.328894687499999918e+02,6.322134943749999820e+02,6.314493812499999876e+02,6.307634275000000343e+02,6.296672362500000872e+02,6.284856768749999674e+02,6.278366087499999821e+02,6.273969837500000040e+02,6.274011512499999981e+02,6.281467837500000542e+02,6.277175674999999728e+02,6.261192899999999781e+02,6.266520474999999806e+02,6.286697775000000092e+02,6.291580693749999682e+02,6.291042418749999570e+02,6.303954274999999825e+02,6.315107112499999857e+02,6.313150268749999441e+02,6.305894875000000184e+02,6.299054312499999924e+02,6.296905400000000554e+02,6.299867193750000069e+02,6.305232437500000060e+02,6.311538206250000940e+02,6.318735306250000576e+02,6.325974699999999302e+02,6.334008762500000103e+02,6.344505406250000306e+02,6.355364475000001221e+02,6.366328043750000916e+02,6.378089674999999943e+02,6.388358162499999935e+02,6.400229918750000024e+02,6.417599431249998361e+02,6.439186662499998874e+02,6.460299237499999663e+02,6.483770081249999748e+02,6.518789843750000728e+02,6.575289593749999995e+02,6.651629293749999761e+02,6.721574293749999924e+02,6.781467393750000383e+02,6.879829793750000135e+02,7.094890737500001023e+02,7.505151031249999960e+02,8.021402250000001004e+02,8.565816687499999489e+02,9.223858812500000113e+02,9.847921499999999924e+02,1.016965231250000102e+03,nan,nan,nan,nan,nan,nan,nan,nan,nan,nan,nan,nan,nan,nan,nan,nan,nan,nan,nan,nan,nan,nan,nan,nan,nan,nan,nan,nan,nan,nan,nan,nan,nan,nan,nan,nan,nan
nan,nan,nan,nan,nan,nan,nan,2.439874562499999683e+03,2.271961624999999913e+03,2.070163937499999975e+03,1.821962718750000022e+03,1.515369637500000181e+03,1.288589412499999980e+03,1.234517331249999870e+03,1.251975787500000024e+03,1.290164193749999868e+03,1.317145368749999989e+03,1.292565037500000017e+03,1.207271187499999996e+03,1.077801637499999970e+03,9.885827312499999380e+02,9.599257499999999936e+02,9.482553000000000338e+02,9.365142562500000167e+02,9.486037562500000604e+02,9.669987499999999727e+02,9.494968750000001592e+02,9.579377937499999689e+02,1.020395687499999894e+03,1.060457518749999963e+03,1.028030050000000074e+03,9.978166187500000888e+02,1.013939475000000130e+03,9.719149125000001277e+02,8.703279874999999493e+02,7.962706249999998818e+02,7.606318625000000111e+02,7.536153499999999212e+02,7.585243687500000078e+02,7.477427249999999503e+02,7.390867437499999824e+02,7.387491475000000491e+02,7.129331531249999898e+02,6.781607099999999946e+02,6.588012518749999344e+02,6.503082431249999900e+02,6.474360618749999503e+02,6.454228881249999858e+02,6.432305925000000570e+02,6.407288450000000921e+02,6.384176662500000248e+02,6.362923299999999927e+02,6.344291256249999833e+02,6.332411137499999541e+02,6.328004550000000563e+02,6.326456456250000429e+02,6.322782312499999762e+02,6.318339693749999242e+02,6.313737475000000359e+02,6.307536818750000975e+02,6.300889900000000807e+02,6.290382356249999702e+02,6.277624881250000044e+02,6.269627924999999777e+02,6.266402112499999930e+02,6.269826962500000036e+02,6.278380743750000192e+02,6.275157956250000097e+02,6.260954943750000439e+02,6.264190587500000902e+02,6.282332468749999634e+02,6.287402631249999558e+02,6.287304050000000188e+02,6.298639518749999979e+02,6.305441687499999261e+02,6.300783675000000130e+02,6.295991018749999739e+02,6.292946212499999774e+02,6.292649668750000274e+02,6.296685718749999978e+02,6.300953031249999867e+02,6.306189524999999776e+02,6.314561331249999512e+02,6.322209056250001140e+02,6.329475112499999341e+02,6.338797556249999161e+02,6.349076925000000529e+02,6.360668175000000701e+02,6.372822224999999889e+02,6.382805193749999262e+02,6.394501543750000110e+02,6.411636693749999267e+02,6.431302393749999737e+02,6.448580637500000421e+02,6.468730375000000095e+02,6.511913499999999431e+02,6.585704112500000065e+02,6.660673343749999731e+02,6.707947018749999870e+02,6.759535093749999533e+02,6.924162993749999941e+02,7.301597575000000688e+02,7.894206374999999980e+02,8.511025812500000711e+02,8.961538187499999140e+02,9.380378249999998843e+02,9.812424250000000256e+02,1.004317987500000072e+03,nan,nan,nan,nan,nan,nan,nan,nan,nan,nan,nan,nan,nan,nan,nan,nan,nan,nan,nan,nan,nan,nan,nan,nan,nan,nan,nan,nan,nan,nan,nan,nan,nan,nan,nan,nan,nan
nan,nan,nan,nan,nan,nan,nan,2.357298374999999851e+03,2.198938124999999673e+03,2.008358750000000100e+03,1.768153143750000027e+03,1.469459275000000162e+03,1.255819574999999986e+03,1.187535756249999849e+03,1.189638787500000035e+03,1.208896512499999972e+03,1.213777775000000020e+03,1.213452831250000145e+03,1.177425418750000063e+03,1.074873074999999972e+03,9.866542687500000284e+02,9.538920875000001161e+02,9.467435187500000211e+02,9.419864749999999276e+02,9.554007687499999975e+02,9.764120250000000851e+02,9.614314124999999649e+02,9.690983437500000264e+02,1.037171318749999955e+03,1.080934774999999945e+03,1.049866375000000062e+03,1.022657706250000047e+03,1.023295806250000169e+03,9.701548000000000229e+02,8.822053187499999467e+02,8.164511812499999905e+02,7.662395625000000337e+02,7.426498562499998570e+02,7.438922481249999237e+02,7.335689806249999947e+02,7.226366918749999968e+02,7.290403718749998916e+02,7.193843875000000025e+02,6.841328712499998801e+02,6.566477343750000273e+02,6.478279700000000503e+02,6.457620943750000606e+02,6.440058868749999874e+02,6.418766900000000533e+02,6.395435187500000893e+02,6.372787893749999739e+02,6.351348956249998992e+02,6.333348218749999887e+02,6.321837275000000318e+02,6.316978050000000167e+02,6.315057637499999146e+02,6.312578224999999748e+02,6.309468462500000214e+02,6.304802793750000092e+02,6.298144537499999842e+02,6.293232587500000363e+02,6.286384031249999680e+02,6.274011318749999191e+02,6.264485381249999136e+02,6.262195612499999697e+02,6.267493474999999989e+02,6.276719281250000222e+02,6.277544931249999536e+02,6.272503756250000606e+02,6.277126256250001006e+02,6.285699493750000784e+02,6.285312968749999527e+02,6.284638231249999762e+02,6.291221124999999574e+02,6.293946600000000444e+02,6.289533368749999909e+02,6.286094356249999464e+02,6.284937400000000025e+02,6.287163506250000182e+02,6.293358412500000441e+02,6.298327037500000642e+02,6.302760212500000989e+02,6.309680337500000178e+02,6.316981312499999603e+02,6.324558793749999950e+02,6.333260387499999524e+02,6.342969387499999812e+02,6.355733493750001344e+02,6.368782187500000873e+02,6.377955474999999979e+02,6.389221762500000068e+02,6.405138331250000192e+02,6.420791231250000237e+02,6.433462981249999757e+02,6.447595593749999807e+02,6.480046999999999571e+02,6.546126756250000653e+02,6.644110224999999446e+02,6.713508593750000273e+02,6.744682568749999518e+02,6.949436506249999184e+02,7.449957500000000437e+02,8.118856500000000551e+02,8.750851500000001124e+02,9.171867187499999545e+02,9.485692312499998025e+02,9.737069062499999745e+02,nan,nan,nan,nan,nan,nan,nan,nan,nan,nan,nan,nan,nan,nan,nan,nan,nan,nan,nan,nan,nan,nan,nan,nan,nan,nan,nan,nan,nan,nan,nan,nan,nan,nan,nan,nan,nan,nan
nan,nan,nan,nan,nan,nan,nan,2.151114812499999971e+03,1.989933668749999697e+03,1.796867981249999957e+03,1.606604318750000175e+03,1.381684250000000247e+03,1.228054381250000006e+03,1.182422743750000109e+03,1.141432275000000118e+03,1.104334031249999953e+03,1.097233468749999929e+03,1.100815737500000068e+03,1.089519218750000164e+03,1.035278000000000020e+03,9.770573499999999285e+02,9.528259312500000533e+02,9.487113937499999565e+02,9.487611437499999738e+02,9.553749249999999620e+02,9.664936562499999582e+02,9.679278874999998834e+02,9.885127125000000206e+02,1.049353650000000016e+03,1.085367856249999932e+03,1.061831462500000043e+03,1.037518062500000042e+03,1.009743556249999983e+03,9.418603000000000520e+02,8.667873374999999214e+02,8.097240625000001728e+02,7.632221500000000560e+02,7.376317812500000173e+02,7.286622087499999907e+02,7.133158187499999485e+02,7.090477300000000014e+02,7.236953875000000380e+02,7.175119668750000983e+02,6.830296312500000795e+02,6.551908906250000655e+02,6.457668874999999389e+02,6.436897150000000920e+02,6.422318681250001191e+02,6.404010749999999916e+02,6.383527074999999513e+02,6.362226031249999778e+02,6.340640768749999552e+02,6.323137993749999168e+02,6.312250937499999281e+02,6.307214774999999918e+02,6.305244887500000459e+02,6.304350318750000497e+02,6.302465593749999471e+02,6.296291100000000824e+02,6.288261912499999653e+02,6.284248937500000238e+02,6.279878068749999329e+02,6.268874531249999791e+02,6.260024781250000387e+02,6.260870531250000113e+02,6.268172293750000108e+02,6.274233337499999834e+02,6.271929243749999614e+02,6.271523756249999906e+02,6.279734187500000644e+02,6.284532368750000160e+02,6.282966968749999523e+02,6.280049781249999796e+02,6.280447100000000091e+02,6.282645087500000045e+02,6.282637325000000601e+02,6.281709674999999606e+02,6.280806143749999819e+02,6.283161268750000090e+02,6.289033906249999291e+02,6.294051593750000393e+02,6.298390500000000429e+02,6.303849206250000634e+02,6.310608200000000352e+02,6.318494962500000156e+02,6.327339756249999709e+02,6.337056462500000862e+02,6.349833943750001026e+02,6.363339162500000157e+02,6.372853856249998898e+02,6.383575781249999181e+02,6.397882793750000019e+02,6.410034512500000119e+02,6.417613374999999678e+02,6.427876912499999662e+02,6.451455474999999069e+02,6.493399481249999781e+02,6.594406843750000462e+02,6.714718412500000113e+02,6.773439862499999435e+02,6.928246374999999944e+02,7.311037231249999877e+02,7.911596681249999392e+02,8.574915375000000495e+02,9.029666187500000660e+02,9.387577249999999367e+02,9.650752625000000080e+02,nan,nan,nan,nan,nan,nan,nan,nan,nan,nan,nan,nan,nan,nan,nan,nan,nan,nan,nan,nan,nan,nan,nan,nan,nan,nan,nan,nan,nan,nan,nan,nan,nan,nan,nan,nan,nan,nan
nan,nan,nan,nan,nan,nan,1.931569281250000131e+03,1.878057443749999948e+03,1.730857837499999732e+03,1.546938462500000014e+03,1.403892293750000135e+03,1.267991568750000170e+03,1.205359062500000164e+03,1.214972725000000082e+03,1.160110662499999989e+03,1.080449881250000089e+03,1.046902756250000039e+03,1.027362781249999898e+03,1.011578943750000008e+03,9.908539750000001050e+02,9.673958250000000589e+02,9.555921749999999975e+02,9.550895062499998858e+02,9.657780687499999885e+02,9.734884562500000129e+02,9.728282125000000633e+02,9.877280562500000087e+02,1.016408799999999928e+03,1.058869400000000041e+03,1.086866287499999999e+03,1.073616218750000144e+03,1.052230756250000013e+03,1.000297018750000007e+03,9.190009937500001342e+02,8.489542437500001597e+02,7.908621687499999098e+02,7.564973125000000209e+02,7.442639000000000351e+02,7.301268043749998924e+02,7.086579262499999459e+02,7.028435456249999334e+02,7.117188962500000571e+02,7.002550075000001470e+02,6.727297956250000652e+02,6.528854481250000390e+02,6.441155506249999689e+02,6.418142506249999997e+02,6.405816581249999899e+02,6.391083724999999731e+02,6.371620062499999904e+02,6.350690700000000106e+02,6.329735599999999067e+02,6.311993137499999875e+02,6.300774499999999989e+02,6.296307862500000283e+02,6.295238181249999343e+02,6.294965643749999344e+02,6.292959099999999353e+02,6.286794331250000596e+02,6.279849712500000578e+02,6.276179624999999760e+02,6.272043612500000336e+02,6.262782306250001056e+02,6.255746187500000133e+02,6.258986356249999972e+02,6.267351537499998813e+02,6.269623650000000907e+02,6.264371381250000468e+02,6.264423512500000015e+02,6.271248943750000535e+02,6.279165387500000861e+02,6.284355012500000157e+02,6.277877875000000358e+02,6.271077275000000100e+02,6.273374518749999424e+02,6.277180700000000115e+02,6.278454750000000786e+02,6.276802868749999789e+02,6.278163681249999399e+02,6.283517368749999150e+02,6.288227512500000103e+02,6.293427831250000963e+02,6.299588724999999840e+02,6.306118306250000387e+02,6.313486143749998973e+02,6.321992149999999810e+02,6.332102506250000715e+02,6.344137656249999964e+02,6.356281031249999387e+02,6.366236581249999062e+02,6.376430337499999723e+02,6.388346806249999190e+02,6.398391868749999958e+02,6.404605718750000278e+02,6.412546881250000297e+02,6.432512781249999989e+02,6.459974981249999928e+02,6.521205487500001254e+02,6.645549987500000952e+02,6.764789493749999565e+02,6.868527356249999229e+02,7.075050462500000776e+02,7.519123256249999940e+02,8.099512687500000538e+02,8.547106687499999680e+02,9.039588999999999714e+02,9.483107625000000098e+02,nan,nan,nan,nan,nan,nan,nan,nan,nan,nan,nan,nan,nan,nan,nan,nan,nan,nan,nan,nan,nan,nan,nan,nan,nan,nan,nan,nan,nan,nan,nan,nan,nan,nan,nan,nan,nan,nan
nan,nan,nan,nan,nan,1.825458812500000022e+03,1.751834937500000024e+03,1.678457325000000083e+03,1.571382937500000025e+03,1.446501687500000116e+03,1.328901793750000252e+03,1.219122587500000009e+03,1.201949362500000007e+03,1.244061981250000144e+03,1.200708918750000066e+03,1.115876999999999953e+03,1.067823375000000169e+03,1.032549787500000093e+03,1.004572718750000035e+03,9.883721749999999702e+02,9.751654062500000464e+02,9.657796687500000417e+02,9.647964437499999804e+02,9.810284874999999829e+02,9.922595250000000533e+02,9.880102375000000166e+02,1.020695993750000071e+03,1.062303712500000074e+03,1.081358093750000080e+03,1.091294593750000104e+03,1.074419743749999952e+03,1.048784543750000012e+03,9.918250375000000076e+02,9.079954625000000306e+02,8.387792437499999778e+02,7.785953937499999711e+02,7.505133624999999711e+02,7.483004250000001321e+02,7.356930437500000153e+02,7.170660062500001004e+02,7.101545187500000793e+02,7.106110781249999491e+02,6.923049006249999593e+02,6.635817524999999932e+02,6.482942993750000369e+02,6.427412174999999479e+02,6.403771431249999750e+02,6.391420312499999454e+02,6.379366356250000081e+02,6.359441306249999570e+02,6.337461499999999432e+02,6.318491487499999266e+02,6.301317393749999383e+02,6.288378937499999211e+02,6.283585906250000335e+02,6.284293637499999932e+02,6.285089600000000019e+02,6.282816831249999723e+02,6.277425150000000258e+02,6.272607750000000806e+02,6.269169443750000710e+02,6.263877693750000617e+02,6.256863493749999634e+02,6.253358556250000220e+02,6.257279437500000085e+02,6.264602856250000968e+02,6.268293212500000209e+02,6.265864300000000640e+02,6.262490424999999732e+02,6.263688393750001069e+02,6.271037825000000794e+02,6.278898537500000430e+02,6.273869606250000288e+02,6.265109793750000335e+02,6.265849856249999448e+02,6.270074312499999678e+02,6.271987943750000341e+02,6.269849556249999978e+02,6.271494231249999984e+02,6.278483543749999853e+02,6.283414131250000310e+02,6.289022562500000504e+02,6.295984987500000898e+02,6.301996125000000575e+02,6.308476774999999179e+02,6.316661181249999117e+02,6.326964825000000019e+02,6.338705831250000529e+02,6.349820562499999141e+02,6.358885443750000377e+02,6.368935950000000048e+02,6.379226099999999633e+02,6.385971931249998761e+02,6.391858718749999753e+02,6.399980881250000948e+02,6.415902799999998933e+02,6.438255124999999452e+02,6.474838587500000813e+02,6.568036325000000488e+02,6.687960106250000081e+02,6.786975787499999342e+02,6.962995256250001148e+02,7.315642343750000691e+02,7.833528249999999389e+02,8.270288249999999834e+02,8.654702562499999203e+02,9.065572437499999978e+02,nan,nan,nan,nan,nan,nan,nan,nan,nan,nan,nan,nan,nan,nan,nan,nan,nan,nan,nan,nan,nan,nan,nan,nan,nan,nan,nan,nan,nan,nan,nan,nan,nan,nan,nan,nan,nan,nan
nan,nan,nan,nan,1.797753375000000233e+03,1.756140000000000100e+03,1.744409343750000062e+03,1.701836881250000260e+03,1.605818999999999960e+03,1.483002618750000011e+03,1.334384818750000022e+03,1.210707931250000001e+03,1.216944718749999993e+03,1.278449887499999932e+03,1.247088418750000073e+03,1.171187599999999975e+03,1.120655243749999954e+03,1.074391331250000121e+03,1.034876381250000122e+03,1.012536843750000116e+03,9.929354375000000346e+02,9.759970562500000142e+02,9.685528437500000791e+02,9.776498124999999391e+02,9.899055499999999483e+02,9.964373500000001513e+02,1.047820306250000158e+03,1.108277537500000108e+03,1.113192431250000027e+03,1.084100025000000187e+03,1.045251837499999965e+03,1.020981600000000071e+03,9.655088187500000458e+02,8.713936312499999985e+02,8.021807687499999702e+02,7.570856249999999363e+02,7.386062562500001150e+02,7.421625750000000608e+02,7.386352812499999345e+02,7.273616243750000194e+02,7.190589799999999059e+02,7.131388518750000003e+02,6.924336575000000948e+02,6.616057312499999625e+02,6.454966862500000389e+02,6.414565250000000560e+02,6.390865075000000388e+02,6.376716249999999491e+02,6.365149812500000053e+02,6.344988349999999855e+02,6.322537174999999934e+02,6.306501187500000469e+02,6.292370212499999980e+02,6.278659543750000012e+02,6.272401224999999840e+02,6.273943256249999649e+02,6.276201093749999700e+02,6.274425043749999986e+02,6.268660981250000077e+02,6.264456518750000669e+02,6.261802075000000514e+02,6.256083599999999478e+02,6.250177362499999845e+02,6.249268743750000112e+02,6.254635531250000895e+02,6.262237062500000775e+02,6.265639543749999802e+02,6.264419518749999725e+02,6.262234287499999255e+02,6.262398606250000057e+02,6.264003493750000189e+02,6.263769850000001043e+02,6.260878393749999304e+02,6.258126043749999781e+02,6.259706481249999115e+02,6.263541062499999725e+02,6.265772256249999828e+02,6.263870431249999911e+02,6.264621574999999893e+02,6.272093924999999217e+02,6.277809918750000406e+02,6.283118175000000747e+02,6.290314881250001235e+02,6.296092075000000250e+02,6.302369637499999726e+02,6.311350737499999468e+02,6.321269143750000694e+02,6.332318212500000527e+02,6.343240850000000819e+02,6.351229574999999841e+02,6.361481799999999112e+02,6.371493106249999983e+02,6.375518531249999796e+02,6.382982393749999801e+02,6.396717106250000597e+02,6.411304681249998794e+02,6.429374312500000315e+02,6.464191843749999862e+02,6.545093893749999552e+02,6.665016712500000722e+02,6.793713181250000162e+02,7.000907006249999540e+02,7.383882518750000372e+02,8.003325437500000135e+02,8.453999687500000846e+02,8.455617750000001251e+02,8.550568999999999278e+02,nan,nan,nan,nan,nan,nan,nan,nan,nan,nan,nan,nan,nan,nan,nan,nan,nan,nan,nan,nan,nan,nan,nan,nan,nan,nan,nan,nan,nan,nan,nan,nan,nan,nan,nan,nan,nan,nan
