nan,nan,nan,nan,nan,nan,nan,nan,nan,nan,nan,nan,nan,nan,nan,nan,1.302262562500000058e+03,1.187812018749999879e+03,1.077898262499999873e+03,9.801928625000000466e+02,8.733978312500000811e+02,7.693795812500000011e+02,6.831284437500000877e+02,6.153803062499999896e+02,5.765640187499999456e+02,5.451548999999999978e+02,4.566873125000000186e+02,3.535830437500000016e+02,2.959705062499999713e+02,2.565615874999999733e+02,2.321619437500000345e+02,2.247874874999999975e+02,2.272191500000000133e+02,2.343013562499999978e+02,2.246318124999999952e+02,2.094380562500000167e+02,2.420624062500000093e+02,3.047596624999999904e+02,3.245173687500000597e+02,3.063835250000000201e+02,2.809156625000000531e+02,2.598792374999999879e+02,2.508575187500000254e+02,2.434507937500000025e+02,2.202108499999999935e+02,1.880010687500000017e+02,1.673336562499999900e+02,1.554414500000000032e+02,1.430598687500000210e+02,1.270216187500000018e+02,1.144522687500000018e+02,1.082091550000000097e+02,1.011434518749999967e+02,9.332855625000001965e+01,8.729221124999999404e+01,8.246554187499999955e+01,8.045194187499998861e+01,8.040608812499999658e+01,7.952032312500000444e+01,7.805909312500000397e+01,7.607498687500000756e+01,7.414499499999999443e+01,7.244299312500000099e+01,7.056183250000000839e+01,6.845749374999999759e+01,6.626705499999999915e+01,6.435097749999999905e+01,6.254381062499999899e+01,6.064582874999999262e+01,5.873247000000000639e+01,5.658778500000000378e+01,5.405663187500000078e+01,5.121482062500000154e+01,4.832020812500000773e+01,4.622181687500000180e+01,4.538382187499999532e+01,4.499029750000000405e+01,4.399673124999999629e+01,4.298366437500000359e+01,4.343469874999999547e+01,4.489873749999999575e+01,4.626562062499999683e+01,4.757609250000000145e+01,4.916024749999999699e+01,5.106526937499999974e+01,5.309603187499999422e+01,5.609926187500000339e+01,6.115213562499999966e+01,6.777602312499999471e+01,7.424704375000000312e+01,8.283103812499999208e+01,1.013328849999999903e+02,1.296759200000000192e+02,1.617517937499999903e+02,1.998863499999999931e+02,2.561375750000000266e+02,3.230756562500000086e+02,3.843330812499999638e+02,4.288517437500000256e+02,4.111133249999999748e+02,3.904447874999999613e+02,4.209028374999999755e+02,4.625209937500000024e+02,5.554812562500000013e+02,6.033714687500000764e+02,5.009798437500000432e+02,4.239454375000000255e+02,5.086442000000000121e+02,6.585214437500000031e+02,7.559045999999999594e+02,7.854907749999999851e+02,7.892379124999999931e+02,7.845244062500000837e+02,nan,nan,nan,nan,nan,nan,nan,nan,nan,nan,nan,nan,nan,nan,nan,nan,nan,nan,nan,nan,nan,nan,nan,nan,nan,nan,nan,nan,nan,nan,nan,nan
nan,nan,nan,nan,nan,nan,nan,nan,nan,nan,nan,nan,nan,nan,nan,nan,1.358509812499999953e+03,1.159560512500000186e+03,1.042139218750000055e+03,9.974595749999999725e+02,9.317318124999999327e+02,8.299309687499999200e+02,7.250902875000000449e+02,6.281403374999999869e+02,5.344648250000000189e+02,4.544015562499999987e+02,3.884958249999999680e+02,3.294047249999999849e+02,2.912732499999999618e+02,2.578431812499999864e+02,2.335381812500000365e+02,2.229952687500000081e+02,2.305550312500000132e+02,2.583330750000000080e+02,2.535519437500000208e+02,2.322868437499999743e+02,2.697278875000000085e+02,3.286296187500000201e+02,3.338792187500000068e+02,3.087081812500000524e+02,2.762633125000000405e+02,2.440010500000000206e+02,2.325593375000000265e+02,2.269241562500000100e+02,2.046736625000000060e+02,1.757963937499999929e+02,1.591199187500000107e+02,1.498099374999999895e+02,1.398559937500000103e+02,1.265819625000000030e+02,1.150385387500000007e+02,1.077180149999999941e+02,9.863825937499998986e+01,9.038540999999999315e+01,8.429248812500000554e+01,7.960547562499999685e+01,7.745196312499999181e+01,7.696447812499999941e+01,7.683586875000000305e+01,7.600511124999999879e+01,7.422660687500000165e+01,7.228072312500000862e+01,7.040267124999999737e+01,6.850126875000000837e+01,6.655494562500000200e+01,6.465190500000001350e+01,6.292943812499999723e+01,6.136270312499999591e+01,5.984739625000000274e+01,5.777515187499999172e+01,5.541814625000000660e+01,5.338139500000000481e+01,5.119196499999999617e+01,4.865281937499999287e+01,4.647839249999999822e+01,4.489393875000000378e+01,4.378204124999999891e+01,4.289500937500000077e+01,4.215785687500000734e+01,4.263180750000000074e+01,4.398530562499999519e+01,4.524847937499999517e+01,4.660921874999999659e+01,4.805126124999999604e+01,4.971424125000000060e+01,5.139770125000000434e+01,5.339880437500000454e+01,5.711779937499999704e+01,6.214738312500000461e+01,6.636198687499999949e+01,7.275690312499999379e+01,9.036753625000000056e+01,1.249475243750000004e+02,1.677462325000000192e+02,2.068311250000000143e+02,2.471654062499999895e+02,2.921353937500000484e+02,3.458486875000000396e+02,3.817767937500000244e+02,3.735205312499999764e+02,4.019456500000000005e+02,4.434097624999999994e+02,4.605236687499999562e+02,5.455854499999999234e+02,5.697175937499999918e+02,4.481802687499999820e+02,4.201686687499999380e+02,5.654679499999999734e+02,6.977850124999999935e+02,7.475599750000001222e+02,7.570557562500000586e+02,7.596680312500000127e+02,nan,nan,nan,nan,nan,nan,nan,nan,nan,nan,nan,nan,nan,nan,nan,nan,nan,nan,nan,nan,nan,nan,nan,nan,nan,nan,nan,nan,nan,nan,nan,nan,nan
nan,nan,nan,nan,nan,nan,nan,nan,nan,nan,nan,nan,nan,nan,nan,nan,1.353141981250000299e+03,1.097124281249999967e+03,9.331522937499998989e+02,8.841740125000001171e+02,8.430499312499998723e+02,7.750348249999999553e+02,7.090428812499999367e+02,6.414049687500000800e+02,5.255127125000000206e+02,3.954427374999999643e+02,3.345353187499999876e+02,3.186292187499999500e+02,3.004193999999999960e+02,2.668019249999999829e+02,2.407577499999999873e+02,2.248799687499999891e+02,2.310596374999999796e+02,2.699084250000000225e+02,2.731012125000000310e+02,2.589541000000000395e+02,2.973765000000000214e+02,3.309284999999999854e+02,3.115049374999999827e+02,2.833344937500000356e+02,2.577064937499999928e+02,2.296897625000000005e+02,2.159994187500000180e+02,2.083069375000000036e+02,1.909368749999999864e+02,1.687332750000000203e+02,1.540392125000000192e+02,1.431337249999999983e+02,1.323332000000000050e+02,1.224114000000000004e+02,1.106038806250000022e+02,1.010627481249999988e+02,9.505974750000000029e+01,8.893856375000000014e+01,8.152466687500000830e+01,7.608846062500001040e+01,7.377617187499998863e+01,7.336418999999999357e+01,7.418551437499999679e+01,7.391385749999999177e+01,7.217855750000001080e+01,7.049787750000000131e+01,6.877654749999999240e+01,6.678706375000000151e+01,6.490559437499999262e+01,6.313536249999999939e+01,6.137874999999999659e+01,6.015106124999999793e+01,5.930339250000000106e+01,5.726355125000000612e+01,5.479251062500000558e+01,5.311109250000000515e+01,5.128560499999999678e+01,4.905770000000000408e+01,4.694502250000000743e+01,4.450607812499999483e+01,4.252871062500000221e+01,4.207260312500000055e+01,4.191627687500000121e+01,4.213519624999999991e+01,4.306141687500000614e+01,4.415235499999999291e+01,4.546932875000000251e+01,4.689951124999999621e+01,4.861006000000000427e+01,5.059028812500000072e+01,5.256156187499999533e+01,5.501847437499999671e+01,5.830937437500000442e+01,6.199686687499999493e+01,6.792747874999999169e+01,8.072232937499998684e+01,1.080178293749999909e+02,1.498811049999999909e+02,1.930070374999999956e+02,2.265774125000000083e+02,2.611215374999999881e+02,3.033267062500000293e+02,3.243827375000000188e+02,3.479537999999999442e+02,4.078129187499999375e+02,4.313009687499999814e+02,4.520249687499999709e+02,5.186757624999999052e+02,4.815604125000000408e+02,3.795060750000000098e+02,4.385573812500000486e+02,6.046759562500000129e+02,6.979196187500001543e+02,7.267094312500000797e+02,7.320833000000000084e+02,nan,nan,nan,nan,nan,nan,nan,nan,nan,nan,nan,nan,nan,nan,nan,nan,nan,nan,nan,nan,nan,nan,nan,nan,nan,nan,nan,nan,nan,nan,nan,nan,nan,nan
nan,nan,nan,nan,nan,nan,nan,nan,nan,nan,nan,nan,nan,nan,nan,nan,1.270506900000000087e+03,1.059770262499999944e+03,9.320454687500000546e+02,8.853249437499999885e+02,8.298970375000000104e+02,7.337597749999999905e+02,6.413832125000000133e+02,5.780554250000000138e+02,4.873349750000000427e+02,3.745012062499999956e+02,3.156465499999999906e+02,3.036503437499999905e+02,2.962043937500000084e+02,2.688813812500000040e+02,2.402270874999999819e+02,2.230912500000000023e+02,2.375915374999999869e+02,2.780219187499999975e+02,2.751084937499999796e+02,2.753971687499999916e+02,3.196706500000000233e+02,3.260611499999999978e+02,2.841241750000000366e+02,2.487836624999999913e+02,2.293219062499999836e+02,2.129567437499999869e+02,2.010099875000000225e+02,1.923360812500000065e+02,1.815112624999999866e+02,1.672386000000000195e+02,1.508222749999999905e+02,1.351351062500000069e+02,1.235668312499999928e+02,1.161413499999999885e+02,1.063398400000000095e+02,9.516874999999998863e+01,8.786400437500000749e+01,8.266870187499999645e+01,7.716635000000000844e+01,7.296496500000000651e+01,7.069462000000000046e+01,7.042463749999998868e+01,7.178736874999999884e+01,7.173458124999999086e+01,6.987184500000000753e+01,6.847321750000000407e+01,6.740854312499999423e+01,6.558413062500000024e+01,6.348653874999999402e+01,6.176306562499999586e+01,6.013488999999999862e+01,5.854176999999999964e+01,5.729852249999999003e+01,5.587198500000000223e+01,5.415315999999999974e+01,5.253130749999999694e+01,5.088503062499999885e+01,4.905631562499999632e+01,4.705982187500000435e+01,4.482351125000000280e+01,4.311743750000000119e+01,4.222322375000000250e+01,4.157612749999999835e+01,4.173897812500000271e+01,4.246350562499999626e+01,4.324191625000000272e+01,4.438947625000000130e+01,4.605880187500000034e+01,4.814845437500000003e+01,5.057318374999999833e+01,5.309647249999999730e+01,5.545638375000000053e+01,5.829413124999999951e+01,6.216690750000000065e+01,6.793317312499999616e+01,7.767769312499999046e+01,9.541650812499999290e+01,1.303814318750000041e+02,1.755239250000000197e+02,2.084868499999999756e+02,2.375591937500000199e+02,2.644082749999999464e+02,2.964297562499999685e+02,3.511530937499999823e+02,3.886707187499999918e+02,4.077208374999999592e+02,4.670307125000000497e+02,4.846707687499999793e+02,3.768160062499999867e+02,3.260234624999999937e+02,4.596332562499999881e+02,6.156383375000000342e+02,6.768307125000000042e+02,7.040068125000000236e+02,7.147486437500000420e+02,nan,nan,nan,nan,nan,nan,nan,nan,nan,nan,nan,nan,nan,nan,nan,nan,nan,nan,nan,nan,nan,nan,nan,nan,nan,nan,nan,nan,nan,nan,nan,nan,nan,nan
nan,nan,nan,nan,nan,nan,nan,nan,nan,nan,nan,nan,nan,nan,nan,nan,nan,1.133212825000000066e+03,1.090933056249999936e+03,1.063249806249999892e+03,9.849617749999999887e+02,8.335291499999999587e+02,6.721841187499999251e+02,5.448656562500000291e+02,4.271192624999999907e+02,3.451107000000000085e+02,3.082089500000000157e+02,2.845467187500000250e+02,2.727985687500000154e+02,2.563386874999999918e+02,2.311838875000000257e+02,2.204470937500000218e+02,2.561010687499999676e+02,3.007662937499999884e+02,2.930329499999999712e+02,3.005108250000000112e+02,3.316998312499999884e+02,3.121517312500000116e+02,2.644850062499999694e+02,2.324769687500000259e+02,2.141309625000000096e+02,1.977315562499999828e+02,1.881938437500000418e+02,1.835951312500000085e+02,1.730877312500000187e+02,1.593944187499999998e+02,1.438166312500000004e+02,1.302696499999999844e+02,1.205140787499999959e+02,1.099957981250000074e+02,1.009678043750000143e+02,9.354286125000001562e+01,8.596890437499999393e+01,7.922831562499999336e+01,7.386542500000000189e+01,7.027613937499999963e+01,6.806661187500000665e+01,6.789195875000001479e+01,6.953260937500000693e+01,6.960493374999998650e+01,6.759494187499998930e+01,6.609564437500000622e+01,6.545915625000000659e+01,6.416581062500000598e+01,6.205325687499999532e+01,6.033360437500000018e+01,5.896418562499999894e+01,5.713184499999999844e+01,5.516008187500000304e+01,5.390880999999999545e+01,5.279871750000000219e+01,5.121230812499999985e+01,4.993461000000000638e+01,4.858213437500000254e+01,4.667019750000000045e+01,4.496394000000000801e+01,4.378947875000000067e+01,4.246535812500000162e+01,4.135018250000000251e+01,4.143540562500000135e+01,4.193612249999999619e+01,4.259852500000000219e+01,4.391611125000000015e+01,4.594181562500000382e+01,4.848805500000000279e+01,5.131720812500000051e+01,5.419125562499999660e+01,5.693368499999999699e+01,6.007088812499999619e+01,6.405320562500000392e+01,6.949229312500000333e+01,7.792309749999999724e+01,9.199249499999999102e+01,1.201462437499999965e+02,1.579799218750000023e+02,1.848441068749999943e+02,2.119897012499999960e+02,2.503185124999999971e+02,3.030895437499999616e+02,3.468937499999999545e+02,3.598560062500000072e+02,4.042051750000000538e+02,4.717991250000000036e+02,4.296432624999999916e+02,3.145120249999999942e+02,3.409465312500000209e+02,4.874691187500000069e+02,5.952349750000000768e+02,6.538863875000000689e+02,6.946539812500000153e+02,nan,nan,nan,nan,nan,nan,nan,nan,nan,nan,nan,nan,nan,nan,nan,nan,nan,nan,nan,nan,nan,nan,nan,nan,nan,nan,nan,nan,nan,nan,nan,nan,nan,nan,nan
nan,nan,nan,nan,nan,nan,nan,nan,nan,nan,nan,nan,nan,nan,nan,nan,nan,1.286374000000000024e+03,1.258380249999999933e+03,1.211811562500000036e+03,1.083846437500000093e+03,8.897486812500000042e+02,7.015685062499999276e+02,5.414604125000000749e+02,3.964590249999999969e+02,3.190577187499999923e+02,2.957476874999999836e+02,2.728185875000000351e+02,2.566095625000000382e+02,2.454080937499999777e+02,2.280182875000000138e+02,2.265351312500000063e+02,2.720478562499999953e+02,3.153479937500000005e+02,3.208464812500000107e+02,3.398512062500000184e+02,3.441896187499999655e+02,2.958863000000000056e+02,2.501072187500000155e+02,2.304281374999999912e+02,2.146004312500000140e+02,1.946466625000000192e+02,1.831433000000000106e+02,1.773335187500000245e+02,1.644717437500000017e+02,1.477695312500000000e+02,1.329171750000000145e+02,1.251466687500000035e+02,1.189484887499999957e+02,1.062356556250000068e+02,9.543746625000001416e+01,9.043305625000000703e+01,8.513003000000000497e+01,7.797185312499999554e+01,7.157020624999999825e+01,6.771792562500000656e+01,6.567305125000001453e+01,6.572126750000001039e+01,6.746418250000000683e+01,6.746532187500000077e+01,6.543120000000000402e+01,6.372322937500000251e+01,6.290814437500000622e+01,6.207501750000000129e+01,6.047511062499999923e+01,5.874038374999999235e+01,5.738114499999999651e+01,5.580041812500000020e+01,5.385932625000000940e+01,5.242090500000000475e+01,5.138204749999999876e+01,5.008198812500000230e+01,4.891526125000000036e+01,4.776882062500000359e+01,4.608440749999999753e+01,4.436136437500000085e+01,4.316260687500000159e+01,4.230192499999999711e+01,4.156449312499999849e+01,4.113013124999999803e+01,4.123440749999999611e+01,4.215391875000000255e+01,4.400218250000000353e+01,4.650999749999999722e+01,4.931453750000000014e+01,5.228180437500000011e+01,5.523695624999999865e+01,5.823354499999999234e+01,6.158282375000000286e+01,6.541908875000000023e+01,7.029037875000000213e+01,7.703692562499999497e+01,8.765089437500000713e+01,1.043498218750000035e+02,1.257235093749999919e+02,1.535704700000000003e+02,2.087440087499999777e+02,2.682721000000000231e+02,2.954263249999999630e+02,3.169929124999999885e+02,3.562364187499999844e+02,4.090733562500000176e+02,4.216719812500000444e+02,3.481716437499999870e+02,2.947338937499999929e+02,3.666324187500000562e+02,4.609968062500000201e+02,5.176961687499999698e+02,5.938394000000000688e+02,6.636115624999999909e+02,nan,nan,nan,nan,nan,nan,nan,nan,nan,nan,nan,nan,nan,nan,nan,nan,nan,nan,nan,nan,nan,nan,nan,nan,nan,nan,nan,nan,nan,nan,nan,nan,nan,nan,nan
nan,nan,nan,nan,nan,nan,nan,nan,nan,nan,nan,nan,nan,nan,nan,nan,nan,1.304128518750000012e+03,1.241817725000000110e+03,1.190835893750000196e+03,1.059894418749999886e+03,8.631961874999999509e+02,6.666185562499999833e+02,4.966275812499999347e+02,3.692510125000000016e+02,3.088172875000000204e+02,2.902519875000000411e+02,2.703176624999999831e+02,2.501672312499999862e+02,2.423734562500000038e+02,2.425970750000000180e+02,2.536426124999999843e+02,2.866481062500000121e+02,3.152746125000000461e+02,3.275212062499999774e+02,3.480094750000000658e+02,3.409076062499999580e+02,2.808879749999999831e+02,2.325861625000000004e+02,2.188488812499999767e+02,2.126207812499999932e+02,2.019865000000000066e+02,1.861426875000000223e+02,1.716276875000000075e+02,1.589886999999999944e+02,1.416425687500000095e+02,1.246858762499999926e+02,1.169419037500000087e+02,1.116483487499999967e+02,1.021040381250000024e+02,9.206348249999999211e+01,8.557938250000000835e+01,8.048481187499999123e+01,7.455597124999999892e+01,6.897874312499999405e+01,6.535323750000000587e+01,6.360257874999999217e+01,6.389763250000000028e+01,6.549573812500000258e+01,6.547569874999999229e+01,6.354998437500000108e+01,6.177234250000000060e+01,6.074907375000000087e+01,6.013464125000000138e+01,5.915986875000000111e+01,5.749220937500000161e+01,5.580160187500000291e+01,5.415632374999999854e+01,5.254907687499999724e+01,5.142015999999999565e+01,5.051429999999999865e+01,4.924235249999999553e+01,4.767226374999999905e+01,4.648323937499999658e+01,4.534321937500000388e+01,4.372757375000000479e+01,4.243651812499999920e+01,4.193770750000000191e+01,4.134536500000000103e+01,4.051229374999999777e+01,4.057805187499999988e+01,4.193796437499999996e+01,4.432097749999999792e+01,4.713706062499999661e+01,4.981021562499999789e+01,5.256837124999999844e+01,5.554165437500000024e+01,5.877366125000000352e+01,6.234593500000000432e+01,6.601150750000000755e+01,7.015096562499999777e+01,7.543625874999999326e+01,8.485158687500000951e+01,1.000576599999999985e+02,1.223661281250000172e+02,1.660453881249999881e+02,2.321011637499999836e+02,2.665255437499999971e+02,2.668748687500000187e+02,3.118332874999999831e+02,3.887066499999999678e+02,4.067422124999999937e+02,3.405097937499999716e+02,2.818176062500000398e+02,3.035459000000000174e+02,3.611201437500000111e+02,4.022451125000000047e+02,4.533149250000000166e+02,5.451211937499999749e+02,nan,nan,nan,nan,nan,nan,nan,nan,nan,nan,nan,nan,nan,nan,nan,nan,nan,nan,nan,nan,nan,nan,nan,nan,nan,nan,nan,nan,nan,nan,nan,nan,nan,nan,nan,nan
nan,nan,nan,nan,nan,nan,nan,nan,nan,nan,nan,nan,nan,nan,nan,nan,nan,1.150704137500000115e+03,1.056898737500000152e+03,1.019612956250000025e+03,9.537440874999999778e+02,7.959641749999998410e+02,5.920980500000000575e+02,4.276479937500000119e+02,3.390949499999999830e+02,3.058582000000000107e+02,2.911447249999999940e+02,2.708602000000000203e+02,2.480601874999999836e+02,2.440600249999999960e+02,2.722916687500000421e+02,3.110651374999999916e+02,3.256975750000000289e+02,3.172461437499999874e+02,3.133621187499999792e+02,3.225218312499999911e+02,3.083358812499999999e+02,2.550297562500000197e+02,2.161063875000000110e+02,2.043895625000000109e+02,2.024185624999999789e+02,2.023732249999999908e+02,1.874501250000000141e+02,1.691210875000000158e+02,1.558539250000000038e+02,1.380583875000000091e+02,1.199756587500000080e+02,1.079351318749999962e+02,1.009045449999999846e+02,9.585810374999998373e+01,8.885709812499999316e+01,8.178176562499999136e+01,7.632558124999999905e+01,7.130212749999999744e+01,6.664187749999999255e+01,6.297419062499999853e+01,6.114394812500000143e+01,6.141501562500000233e+01,6.295423999999999864e+01,6.341987999999999204e+01,6.185288750000000135e+01,6.012895499999999771e+01,5.909038500000000482e+01,5.826400124999999974e+01,5.751321000000000083e+01,5.635841500000000082e+01,5.456496437499999530e+01,5.260833875000000148e+01,5.099122437499999450e+01,5.001221999999999923e+01,4.929540000000000077e+01,4.810891500000000320e+01,4.637470937500000190e+01,4.478741999999999734e+01,4.386121812500000772e+01,4.289044187500000049e+01,4.184427875000000085e+01,4.145042624999999958e+01,4.102606187499999635e+01,4.023795937500000264e+01,4.022697374999999909e+01,4.180264562499999670e+01,4.447290124999999961e+01,4.727160250000000019e+01,4.975939812499999704e+01,5.238508499999999657e+01,5.549044750000000192e+01,5.878739187500001151e+01,6.222462375000000634e+01,6.575438812500000552e+01,6.953849812499998961e+01,7.423774000000000228e+01,8.452833812499999055e+01,1.055757468750000072e+02,1.408183887499999969e+02,1.951241375000000176e+02,2.358674125000000004e+02,2.425126624999999763e+02,2.726555812500000116e+02,3.457919749999999794e+02,3.970642500000000155e+02,3.617421812500000442e+02,2.729171312500000113e+02,2.561338999999999828e+02,3.223023749999999836e+02,3.917018375000000106e+02,4.453078499999999735e+02,5.017900437499999384e+02,5.763837250000000267e+02,nan,nan,nan,nan,nan,nan,nan,nan,nan,nan,nan,nan,nan,nan,nan,nan,nan,nan,nan,nan,nan,nan,nan,nan,nan,nan,nan,nan,nan,nan,nan,nan,nan,nan,nan,nan
nan,nan,nan,nan,nan,nan,nan,nan,nan,nan,nan,nan,nan,nan,nan,nan,nan,1.056396212500000047e+03,9.344037062500000275e+02,8.647110749999999371e+02,8.056800437499999816e+02,6.872353499999999258e+02,5.221270624999999654e+02,3.921248500000000377e+02,3.315253750000000537e+02,3.097482499999999845e+02,2.911455062500000395e+02,2.703009312500000192e+02,2.488245875000000069e+02,2.428903874999999744e+02,2.926328812500000254e+02,3.648891812500000356e+02,3.679717562499999985e+02,3.130327937499999962e+02,2.833446124999999824e+02,2.876959624999999505e+02,2.726619249999999965e+02,2.321971187500000156e+02,2.090618312499999831e+02,1.989627187499999934e+02,1.932226687499999684e+02,1.958238624999999900e+02,1.851650687500000174e+02,1.657976125000000138e+02,1.486402312500000278e+02,1.314586874999999964e+02,1.161601450000000000e+02,1.029871012499999949e+02,9.491960625000000107e+01,9.088467750000000933e+01,8.463277250000001573e+01,7.784337250000000097e+01,7.283507187499999702e+01,6.834822812499999145e+01,6.429600750000000176e+01,6.072467749999999853e+01,5.876903437500000393e+01,5.884119250000000534e+01,6.034194875000000025e+01,6.124152374999999893e+01,6.002041437500000143e+01,5.832937249999999096e+01,5.726737374999999730e+01,5.614643499999999676e+01,5.529067187500000102e+01,5.460368312499999632e+01,5.319689437499999940e+01,5.147529687500000506e+01,4.988317562499999980e+01,4.856909937500000041e+01,4.775061999999999784e+01,4.697970624999999245e+01,4.563698187500000358e+01,4.362976187499999980e+01,4.229479187500000137e+01,4.170851749999999925e+01,4.085993562499999854e+01,4.060096312499999982e+01,4.058267250000000104e+01,3.990630062500000008e+01,3.994054624999999703e+01,4.160229562499999645e+01,4.410835562500000151e+01,4.672837187500000056e+01,4.937618437500000823e+01,5.232175062499999996e+01,5.545533062500000199e+01,5.843269250000000170e+01,6.146266749999999490e+01,6.480058937499998706e+01,6.891264624999999455e+01,7.442321749999999270e+01,8.391822625000000357e+01,1.026785906249999982e+02,1.351166924999999992e+02,1.792739374999999882e+02,2.116818000000000097e+02,2.410959624999999846e+02,3.028315312499999550e+02,3.555602499999999964e+02,3.359063500000000317e+02,2.667581062499999689e+02,2.362266999999999939e+02,2.769710000000000036e+02,3.608447124999999573e+02,4.632774875000000065e+02,5.374109124999999949e+02,5.780249312500000087e+02,6.141853312499999902e+02,nan,nan,nan,nan,nan,nan,nan,nan,nan,nan,nan,nan,nan,nan,nan,nan,nan,nan,nan,nan,nan,nan,nan,nan,nan,nan,nan,nan,nan,nan,nan,nan,nan,nan,nan,nan
nan,nan,nan,nan,nan,nan,nan,nan,nan,nan,nan,nan,nan,nan,nan,nan,nan,1.162219024999999874e+03,1.036498162500000035e+03,9.200698000000001002e+02,7.940108312499999101e+02,6.435897749999999178e+02,4.935435062500000640e+02,3.843006687499999998e+02,3.319236875000000282e+02,3.077269562500000006e+02,2.844511875000000032e+02,2.642523125000000164e+02,2.480386124999999993e+02,2.474848749999999882e+02,3.044665562499999965e+02,3.777640687500000354e+02,3.627334062499999732e+02,2.900804062500000100e+02,2.490548749999999814e+02,2.453891375000000039e+02,2.431226374999999962e+02,2.287789562499999931e+02,2.158289062499999886e+02,2.018091187499999819e+02,1.928156437499999925e+02,1.926934750000000065e+02,1.829703750000000468e+02,1.654590562500000033e+02,1.465559875000000147e+02,1.277333187500000093e+02,1.139519750000000045e+02,1.034578600000000108e+02,9.449482374999999479e+01,8.675365750000000276e+01,7.835945062499999381e+01,7.152826312499999517e+01,6.788045999999999935e+01,6.496161062499999161e+01,6.175130812500000133e+01,5.874995937499999599e+01,5.708041624999999897e+01,5.689021000000000328e+01,5.805916937499999619e+01,5.917836249999999865e+01,5.820751187500000157e+01,5.636561749999999904e+01,5.520649875000000151e+01,5.417279687500000307e+01,5.330994937500000219e+01,5.255133374999999774e+01,5.137436437499999897e+01,5.018114375000000393e+01,4.898898124999999482e+01,4.757201874999999802e+01,4.647242437499999568e+01,4.579307937499999781e+01,4.472531562500000035e+01,4.274052499999999810e+01,4.122823937500000113e+01,4.067063937500000037e+01,3.978639812500000517e+01,3.915092312500000560e+01,3.901673312500000179e+01,3.897327500000000100e+01,3.977322187500000439e+01,4.147995999999999839e+01,4.365118999999999261e+01,4.603670437499999935e+01,4.868944500000000630e+01,5.177418062500000673e+01,5.471590625000000330e+01,5.738991437499999648e+01,6.028768937500000646e+01,6.363518625000000384e+01,6.835176874999999086e+01,7.494860625000001164e+01,8.425853374999999801e+01,9.973283125000000382e+01,1.235003906249999943e+02,1.534086937499999976e+02,1.973875062500000013e+02,2.583685187500000211e+02,3.017983187499999644e+02,2.912843750000000114e+02,2.320387999999999806e+02,1.855586500000000001e+02,2.294692437499999755e+02,3.312574687499999868e+02,4.220304999999999609e+02,5.046255812500000388e+02,5.608402937500000007e+02,5.882099875000000111e+02,6.061263062499999705e+02,nan,nan,nan,nan,nan,nan,nan,nan,nan,nan,nan,nan,nan,nan,nan,nan,nan,nan,nan,nan,nan,nan,nan,nan,nan,nan,nan,nan,nan,nan,nan,nan,nan,nan,nan,nan
nan,nan,nan,nan,nan,nan,nan,nan,nan,nan,nan,nan,nan,nan,nan,nan,nan,nan,1.229569656249999980e+03,1.079680043750000095e+03,8.882929249999999683e+02,6.672695312500000000e+02,4.793318375000000060e+02,3.680481374999999957e+02,3.190822687500000256e+02,2.968085125000000062e+02,2.783855062499999917e+02,2.611070124999999962e+02,2.537503624999999943e+02,2.659407625000000053e+02,3.215406125000000088e+02,3.719245000000000232e+02,3.388650499999999965e+02,2.814669250000000034e+02,2.520076812499999903e+02,2.296613375000000019e+02,2.183205499999999972e+02,2.242389124999999979e+02,2.230322312499999953e+02,2.059337749999999687e+02,1.978415625000000091e+02,1.941536562499999832e+02,1.892910625000000095e+02,1.784275999999999840e+02,1.530355437499999880e+02,1.293237625000000151e+02,1.149762581250000153e+02,1.051101474999999823e+02,9.661021437499999820e+01,8.685310999999998671e+01,7.549437937499999407e+01,6.710858249999999714e+01,6.351341437499999643e+01,6.146994312500000035e+01,5.902621937500000371e+01,5.659149437499999635e+01,5.530954749999999365e+01,5.504587437499999680e+01,5.578755937500000073e+01,5.705947999999999354e+01,5.660806062500000024e+01,5.464137687499999885e+01,5.314932999999999907e+01,5.214224999999999710e+01,5.133187499999999659e+01,5.047172999999999377e+01,4.928576875000000257e+01,4.842192937499999772e+01,4.783172562499999714e+01,4.659291562500000339e+01,4.516753874999999852e+01,4.425389499999999288e+01,4.319213999999999487e+01,4.144589750000000095e+01,4.011628999999999934e+01,3.957776562499999784e+01,3.840178562500000226e+01,3.713084062500000471e+01,3.718695124999999990e+01,3.827424375000000367e+01,3.972658062499999687e+01,4.133875749999999982e+01,4.325583437499999206e+01,4.549734312499999334e+01,4.797168812500000001e+01,5.063901187499999423e+01,5.333552249999999617e+01,5.618808687499999621e+01,5.925114500000000106e+01,6.253218562500000388e+01,6.708137125000000367e+01,7.343992187500001023e+01,8.432934124999999881e+01,1.033143418749999967e+02,1.286591400000000078e+02,1.569144000000000005e+02,2.036250249999999937e+02,2.553148750000000007e+02,2.491702874999999722e+02,1.968421250000000100e+02,1.732725749999999891e+02,2.003523312499999918e+02,2.726777062500000284e+02,3.669855375000000208e+02,4.436881187500000010e+02,5.021498687499999960e+02,5.415819500000000062e+02,5.631531187499999760e+02,5.796441374999999425e+02,nan,nan,nan,nan,nan,nan,nan,nan,nan,nan,nan,nan,nan,nan,nan,nan,nan,nan,nan,nan,nan,nan,nan,nan,nan,nan,nan,nan,nan,nan,nan,nan,nan,nan,nan,nan
nan,nan,nan,nan,nan,nan,nan,nan,nan,nan,nan,nan,nan,nan,nan,nan,nan,nan,1.308562300000000050e+03,1.090932606249999935e+03,8.602252437499998905e+02,6.347988125000000537e+02,4.536600687499999935e+02,3.541341500000000337e+02,3.110766500000000292e+02,2.947770749999999680e+02,2.836342562500000213e+02,2.750538687499999924e+02,2.764694437499999822e+02,2.829674937500000169e+02,3.318106187500000033e+02,3.753490937500000086e+02,3.354958250000000248e+02,2.941401250000000118e+02,2.824743750000000091e+02,2.449681437499999959e+02,2.094876124999999831e+02,2.093288249999999948e+02,2.067737562500000195e+02,1.926389249999999720e+02,1.914603562500000180e+02,1.896419624999999769e+02,1.872272625000000232e+02,1.762286687499999971e+02,1.472862124999999764e+02,1.258148812499999991e+02,1.149929637499999870e+02,1.041210262499999999e+02,9.481600312499999461e+01,8.548942437499998448e+01,7.422769124999999235e+01,6.487696687500000792e+01,6.011650062500000047e+01,5.832458312500000375e+01,5.645483187499999644e+01,5.454534312499999515e+01,5.357549249999999574e+01,5.327747562499999390e+01,5.343795687499999758e+01,5.462592937499999834e+01,5.503683937500000667e+01,5.320671312500000028e+01,5.117566437499999665e+01,5.005403812499999106e+01,4.920230562500000104e+01,4.827424812499999973e+01,4.727970374999999592e+01,4.675854312499999565e+01,4.652815875000000290e+01,4.538673375000000476e+01,4.383776437499999901e+01,4.278244937499999878e+01,4.169716375000000141e+01,4.017253875000000107e+01,3.895945749999999919e+01,3.831620750000000442e+01,3.701198124999999806e+01,3.608199062500000309e+01,3.685090062500000130e+01,3.807454375000000368e+01,3.940656062499999734e+01,4.100727062499999676e+01,4.269356625000000349e+01,4.482425437500000243e+01,4.734721125000000086e+01,4.986248187500000029e+01,5.249545750000000055e+01,5.548415187500000201e+01,5.850856999999999886e+01,6.146435687500000711e+01,6.522314875000000711e+01,7.034821750000000407e+01,8.087706562500000018e+01,1.022347693750000133e+02,1.317878981249999981e+02,1.613573250000000030e+02,1.917233224999999948e+02,2.156460387500000024e+02,2.081810224999999832e+02,1.910839687499999968e+02,2.182039374999999950e+02,2.821067874999999958e+02,3.436259625000000142e+02,3.944905312500000036e+02,4.415202437500000201e+02,4.841753749999999741e+02,5.152126312499999585e+02,5.363186437499999784e+02,nan,nan,nan,nan,nan,nan,nan,nan,nan,nan,nan,nan,nan,nan,nan,nan,nan,nan,nan,nan,nan,nan,nan,nan,nan,nan,nan,nan,nan,nan,nan,nan,nan,nan,nan,nan,nan
nan,nan,nan,nan,nan,nan,nan,nan,nan,nan,nan,nan,nan,nan,nan,nan,nan,nan,1.288624475000000075e+03,1.020131381250000118e+03,7.805443500000000085e+02,5.829711999999999534e+02,4.298565125000000080e+02,3.460909500000000207e+02,3.134417437500000005e+02,3.041402000000000498e+02,2.944315874999999778e+02,2.927052812499999845e+02,2.974082187500000032e+02,2.876767937500000016e+02,3.246516624999999863e+02,3.750622937499999807e+02,3.478617750000000228e+02,3.102957812499999477e+02,2.914767374999999561e+02,2.507131687500000226e+02,2.220593624999999918e+02,2.153402749999999912e+02,1.991820500000000038e+02,1.803666937499999960e+02,1.741498875000000055e+02,1.722353187500000047e+02,1.657155062499999758e+02,1.540413062499999910e+02,1.350655312499999923e+02,1.179241287499999942e+02,1.087301106250000089e+02,9.896611312499999258e+01,8.756598687499999301e+01,7.754486937499999044e+01,6.913840312499999641e+01,6.165626375000000081e+01,5.708980937500000152e+01,5.554931500000000000e+01,5.412341125000000375e+01,5.276288312499999478e+01,5.192882874999999387e+01,5.136011937499999647e+01,5.108675249999999579e+01,5.239932875000000223e+01,5.349014187499999906e+01,5.169749999999999801e+01,4.927222687499999410e+01,4.821826624999999922e+01,4.745363062500000240e+01,4.644287062499999763e+01,4.561841687499999409e+01,4.516325062499999632e+01,4.488081437499999993e+01,4.397820875000000029e+01,4.261741812500000037e+01,4.143569000000000102e+01,4.005066062499999902e+01,3.857975312499999632e+01,3.729138937500000139e+01,3.652210250000000258e+01,3.645001374999999655e+01,3.678836937500000204e+01,3.734419749999999993e+01,3.787807500000000260e+01,3.898465062500000045e+01,4.051241437499999876e+01,4.193552375000000154e+01,4.389954562500000179e+01,4.650946000000000424e+01,4.920759999999999934e+01,5.187764687500000349e+01,5.482472812500000003e+01,5.779439187500000230e+01,6.067804312500000208e+01,6.411045250000000806e+01,6.885214874999999779e+01,7.824905687500000795e+01,9.869423500000000615e+01,1.282969400000000064e+02,1.553684125000000051e+02,1.697187762499999906e+02,1.877058650000000171e+02,2.214151200000000017e+02,2.535878687499999842e+02,2.867729562499999929e+02,3.280329125000000090e+02,3.710581124999999929e+02,4.069108437500000264e+02,4.332300000000000182e+02,4.557933437500000764e+02,4.801783312499999852e+02,5.036809937500000842e+02,nan,nan,nan,nan,nan,nan,nan,nan,nan,nan,nan,nan,nan,nan,nan,nan,nan,nan,nan,nan,nan,nan,nan,nan,nan,nan,nan,nan,nan,nan,nan,nan,nan,nan,nan,nan,nan
nan,nan,nan,nan,nan,nan,nan,nan,nan,nan,nan,nan,nan,nan,nan,nan,1.518647062500000175e+03,1.400580562500000042e+03,1.231127925000000005e+03,1.021368062500000065e+03,8.098715999999999440e+02,6.065207187500000146e+02,4.396840187499999502e+02,3.477112000000000194e+02,3.242237312500000144e+02,3.238972625000000107e+02,3.032431562499999700e+02,2.885646749999999656e+02,2.880352749999999560e+02,2.827239374999999768e+02,3.192401187499999651e+02,3.696093812499999558e+02,3.615801249999999527e+02,3.296219999999999573e+02,2.882117499999999382e+02,2.395933499999999867e+02,2.273575999999999908e+02,2.284176874999999995e+02,2.108113812500000108e+02,1.843601249999999823e+02,1.616941125000000170e+02,1.509675687499999981e+02,1.450414562499999818e+02,1.420265124999999671e+02,1.323195187499999861e+02,1.145252887499999872e+02,1.031021168749999930e+02,9.421937062499998206e+01,8.222497437500000217e+01,7.116591562499999668e+01,6.357862937500000555e+01,5.807081937499999924e+01,5.481439124999999990e+01,5.317264750000000362e+01,5.192133749999999992e+01,5.085256374999999451e+01,5.001288749999999794e+01,4.927946937499999791e+01,4.916534624999999892e+01,5.076172249999999764e+01,5.174114624999999990e+01,4.989298187499999671e+01,4.759866562500000242e+01,4.663595937499999877e+01,4.595856624999999696e+01,4.494149562500000172e+01,4.415966999999999842e+01,4.364200812500000382e+01,4.343574062500000110e+01,4.302462812500000666e+01,4.184980937500000664e+01,4.036053875000000346e+01,3.845261625000000549e+01,3.685744812500000478e+01,3.539398312500000543e+01,3.456996250000000259e+01,3.597164062499999915e+01,3.727766937500000211e+01,3.725565874999999494e+01,3.743458937500000161e+01,3.847103624999999738e+01,3.982212937500000294e+01,4.114638999999999669e+01,4.300800562500000268e+01,4.552798750000000183e+01,4.829456062500000257e+01,5.099712875000000167e+01,5.388910562499999912e+01,5.693887000000000853e+01,5.993446500000001009e+01,6.311932000000000187e+01,6.796217437500000358e+01,7.858446000000000708e+01,9.894354062499999714e+01,1.244710187500000131e+02,1.492929812499999969e+02,1.667892662500000256e+02,1.858482012500000167e+02,2.165733412499999986e+02,2.539548937499999965e+02,2.973754875000000197e+02,3.337110312500000191e+02,3.602179187500000239e+02,3.849869687500000168e+02,4.086069937500000151e+02,4.276234812499999975e+02,4.478095062499999699e+02,4.685657312499999989e+02,nan,nan,nan,nan,nan,nan,nan,nan,nan,nan,nan,nan,nan,nan,nan,nan,nan,nan,nan,nan,nan,nan,nan,nan,nan,nan,nan,nan,nan,nan,nan,nan,nan,nan,nan,nan,nan
nan,nan,nan,nan,nan,nan,nan,nan,nan,nan,nan,nan,nan,nan,nan,1.403746556249999912e+03,1.384251437500000065e+03,1.248966687500000035e+03,1.116765643749999981e+03,9.821568062499999314e+02,8.180332937499998707e+02,6.319435562499999151e+02,4.682356624999999894e+02,3.672717624999999657e+02,3.460232499999999618e+02,3.495471312500000067e+02,3.107356687500000021e+02,2.767284500000000094e+02,2.775715062499999704e+02,2.927263562499999807e+02,3.296535249999999451e+02,3.607300187499999993e+02,3.494492249999999558e+02,3.262181499999999801e+02,2.832886499999999614e+02,2.185469249999999874e+02,2.032377812500000118e+02,2.191009874999999738e+02,2.060430312499999843e+02,1.766065125000000080e+02,1.515949999999999989e+02,1.384766500000000065e+02,1.365319062499999916e+02,1.379450062500000058e+02,1.316390312499999879e+02,1.163651224999999840e+02,1.033767162499999870e+02,8.994781499999999141e+01,7.678109499999999343e+01,6.759208625000000836e+01,5.974096250000000197e+01,5.496584437500000320e+01,5.282916000000000167e+01,5.128830187500000193e+01,5.006258687500000093e+01,4.911541375000000187e+01,4.834872749999999542e+01,4.759763874999999445e+01,4.783772312499999657e+01,4.943205812499999752e+01,4.976996437500000070e+01,4.805671187499999775e+01,4.626070062499999835e+01,4.525221249999999884e+01,4.449908124999999615e+01,4.345650625000000389e+01,4.269365437499999416e+01,4.231124375000000271e+01,4.224562125000000634e+01,4.219664124999999899e+01,4.121720374999999592e+01,3.948774312499999439e+01,3.723326687499999821e+01,3.547120187500000554e+01,3.459907812500000546e+01,3.445240937500000200e+01,3.587354687500000239e+01,3.695643625000000299e+01,3.679578250000000139e+01,3.700980812500000638e+01,3.795890875000000619e+01,3.928515562500000158e+01,4.081278375000000125e+01,4.269735062499999856e+01,4.503267062500000151e+01,4.772289624999999802e+01,5.043986312500000224e+01,5.310280562500000201e+01,5.594934562499999231e+01,5.867961687499999357e+01,6.102227124999999575e+01,6.475311062500000503e+01,7.408353500000001191e+01,9.290379812500000867e+01,1.157852981249999971e+02,1.372892500000000098e+02,1.556058125000000132e+02,1.723703500000000020e+02,1.913273812499999735e+02,2.189498874999999884e+02,2.635182374999999411e+02,3.072995624999999791e+02,3.331970500000000470e+02,3.573673562500000003e+02,3.897977187500000014e+02,4.126746937499999603e+02,4.274837812499999927e+02,4.437094562500000166e+02,nan,nan,nan,nan,nan,nan,nan,nan,nan,nan,nan,nan,nan,nan,nan,nan,nan,nan,nan,nan,nan,nan,nan,nan,nan,nan,nan,nan,nan,nan,nan,nan,nan,nan,nan,nan,nan
nan,nan,nan,nan,nan,nan,nan,nan,nan,nan,nan,nan,nan,nan,1.176541275000000041e+03,1.223658962499999916e+03,1.288044737500000110e+03,1.212812437499999987e+03,1.057806849999999940e+03,8.847922687499999483e+02,7.232867062499999520e+02,5.878815562499999032e+02,4.749884937499999751e+02,3.850568562499999530e+02,3.616258874999999762e+02,3.660581937499999867e+02,3.208012749999999755e+02,2.800460249999999860e+02,2.915332999999999970e+02,3.278738312499999665e+02,3.484609000000000378e+02,3.398781249999999545e+02,3.074665499999999838e+02,2.789039312500000278e+02,2.475605375000000095e+02,1.916849624999999833e+02,1.755663687499999810e+02,2.007314875000000143e+02,1.918475624999999809e+02,1.598943250000000091e+02,1.423225562499999910e+02,1.398843499999999835e+02,1.402720187500000009e+02,1.343502062499999852e+02,1.290454937499999915e+02,1.179407149999999831e+02,1.001399068749999799e+02,8.240397999999999001e+01,6.947347624999999027e+01,6.265794187499999879e+01,5.624212187499999516e+01,5.230495312499999727e+01,5.083465125000000739e+01,4.963592187500000108e+01,4.851457687500000304e+01,4.773287437500000152e+01,4.708501187499999929e+01,4.641734499999999741e+01,4.700616249999999496e+01,4.841305375000000311e+01,4.811286312500000406e+01,4.644359624999999880e+01,4.495401875000000302e+01,4.388040125000000558e+01,4.307362937499999589e+01,4.206252874999999847e+01,4.125595000000000567e+01,4.097623062500000657e+01,4.091992375000000237e+01,4.084854749999999513e+01,3.996452999999999633e+01,3.831013749999999618e+01,3.615722312500000157e+01,3.442714125000000536e+01,3.435537062500000616e+01,3.508782062500000620e+01,3.604934187500000320e+01,3.639848500000000087e+01,3.612246937500000143e+01,3.659997874999999823e+01,3.777530124999999828e+01,3.929869250000000136e+01,4.109405750000000523e+01,4.303111625000000373e+01,4.511190062499999698e+01,4.747483749999999247e+01,4.997814187499999861e+01,5.236932749999999714e+01,5.468709250000000566e+01,5.675568687499999498e+01,5.833304499999999848e+01,6.097466187500000245e+01,6.820344625000001315e+01,8.353310687500000142e+01,1.053051700000000039e+02,1.246866506249999986e+02,1.393820125000000019e+02,1.641218687500000044e+02,1.982635999999999967e+02,2.133270937499999889e+02,2.251687624999999855e+02,2.642252249999999663e+02,3.008858625000000302e+02,3.268015562500000328e+02,3.573260250000000156e+02,3.849717249999999922e+02,4.008481187500000260e+02,nan,nan,nan,nan,nan,nan,nan,nan,nan,nan,nan,nan,nan,nan,nan,nan,nan,nan,nan,nan,nan,nan,nan,nan,nan,nan,nan,nan,nan,nan,nan,nan,nan,nan,nan,nan,nan,nan
nan,nan,nan,nan,nan,nan,nan,nan,nan,nan,nan,nan,nan,1.345423681250000072e+03,1.117614399999999932e+03,1.071167631249999886e+03,1.186035787499999969e+03,1.221226875000000064e+03,1.062974462500000072e+03,8.184041812499999651e+02,6.443312375000000429e+02,5.712755875000000287e+02,4.958325624999999945e+02,3.978731249999999591e+02,3.651095374999999876e+02,3.674902812500000664e+02,3.285598312500000020e+02,2.921675687499999867e+02,3.065835374999999772e+02,3.572509374999999636e+02,3.668499812500000417e+02,3.199422999999999888e+02,2.670297249999999849e+02,2.273018624999999986e+02,2.019721375000000023e+02,1.796848499999999831e+02,1.750093812499999899e+02,1.916279875000000175e+02,1.855677187499999832e+02,1.544633062500000165e+02,1.373153937499999984e+02,1.383515437499999905e+02,1.365094374999999900e+02,1.252437937500000089e+02,1.210105937500000124e+02,1.134312262499999946e+02,9.313633437499998990e+01,7.571253000000000100e+01,6.481067749999999705e+01,5.820507437499999526e+01,5.348669875000000218e+01,5.048109625000000733e+01,4.898991812500000265e+01,4.795560812499999770e+01,4.704434499999999986e+01,4.641173874999999782e+01,4.582662312499999757e+01,4.548822499999999991e+01,4.653374250000000245e+01,4.755912250000000085e+01,4.651376375000000252e+01,4.469934874999999863e+01,4.337290500000000293e+01,4.236731874999999548e+01,4.168148937499999818e+01,4.081092312500000219e+01,3.985970249999999737e+01,3.955231437500000879e+01,3.956291000000000224e+01,3.933992312499999855e+01,3.854971937499999513e+01,3.722328937500000734e+01,3.538212562500000047e+01,3.386850812500000529e+01,3.400280125000000453e+01,3.484298062500000270e+01,3.552148750000000632e+01,3.569586687500000011e+01,3.554051375000000235e+01,3.624368312500000400e+01,3.779419749999999567e+01,3.965164312499999966e+01,4.159000500000000500e+01,4.337302999999999997e+01,4.506314687500000105e+01,4.700327187499999582e+01,4.914030874999999554e+01,5.118244999999999578e+01,5.287440000000000140e+01,5.435422625000000352e+01,5.564614812500000340e+01,5.763555875000000128e+01,6.463159500000000435e+01,7.582962687500000243e+01,8.974132249999999544e+01,1.090040218750000065e+02,1.297623874999999884e+02,1.563828625000000159e+02,1.879888500000000136e+02,2.009227500000000077e+02,2.078051375000000007e+02,2.445635250000000269e+02,2.791993937500000129e+02,2.856033687500000156e+02,2.940438812500000267e+02,3.271855937500000095e+02,3.629536437500000261e+02,nan,nan,nan,nan,nan,nan,nan,nan,nan,nan,nan,nan,nan,nan,nan,nan,nan,nan,nan,nan,nan,nan,nan,nan,nan,nan,nan,nan,nan,nan,nan,nan,nan,nan,nan,nan,nan,nan
nan,nan,nan,nan,nan,nan,nan,nan,nan,nan,nan,nan,1.434213999999999942e+03,1.285463874999999916e+03,1.078711675000000014e+03,9.572543062500000133e+02,1.016802193750000129e+03,1.075233725000000049e+03,9.492531999999999925e+02,7.394260874999999942e+02,6.501615249999999833e+02,6.478041062499999043e+02,5.553271062499999289e+02,4.177679499999999848e+02,3.668995687500000145e+02,3.588189437500000167e+02,3.260664499999999748e+02,2.963401062499999625e+02,3.048651874999999905e+02,3.614371999999999616e+02,3.801016187500000001e+02,3.171407937500000003e+02,2.499266125000000045e+02,2.130373249999999814e+02,1.994528999999999996e+02,1.978593124999999873e+02,1.964489812499999744e+02,1.945267875000000117e+02,1.801806812499999637e+02,1.510364250000000084e+02,1.349182500000000005e+02,1.292124256249999803e+02,1.195268762499999866e+02,1.104216512499999965e+02,1.068206556250000006e+02,1.039408631249999928e+02,9.036867750000000399e+01,7.279269562499999324e+01,6.171854874999999652e+01,5.565664749999999827e+01,5.176127687499999297e+01,4.923375812500000848e+01,4.755356500000000608e+01,4.658969375000000923e+01,4.573372937499999580e+01,4.506658875000000108e+01,4.449791062499999583e+01,4.446125124999999656e+01,4.569890249999999554e+01,4.624869124999999315e+01,4.474164937500000150e+01,4.287741312499999680e+01,4.163829625000000334e+01,4.079402312500000960e+01,4.033817562499999809e+01,3.972367999999999455e+01,3.871258687499999951e+01,3.816234062499999879e+01,3.808395812500000233e+01,3.780398375000000044e+01,3.717039187499999287e+01,3.616317187500000330e+01,3.442036187499999755e+01,3.307673375000000249e+01,3.368935562499999747e+01,3.458466187500000188e+01,3.477018874999999554e+01,3.493871437500000354e+01,3.521327749999999668e+01,3.612059312499999919e+01,3.781199999999999761e+01,3.965053875000000261e+01,4.130489812500000113e+01,4.291440562500000055e+01,4.451549937500000453e+01,4.621198875000000328e+01,4.798044250000000233e+01,4.957932625000000115e+01,5.088318250000000376e+01,5.212350687500000390e+01,5.309155062500000355e+01,5.396254312500001049e+01,5.917268250000000762e+01,6.669226625000000297e+01,7.134279562500000793e+01,8.491963562499999796e+01,1.061533325000000048e+02,1.291097943750000070e+02,1.542485881249999977e+02,1.754541749999999922e+02,1.956639187500000219e+02,2.249323187500000074e+02,2.478135062500000174e+02,2.401194750000000226e+02,2.340798312500000407e+02,2.669084062499999845e+02,3.237402749999999969e+02,nan,nan,nan,nan,nan,nan,nan,nan,nan,nan,nan,nan,nan,nan,nan,nan,nan,nan,nan,nan,nan,nan,nan,nan,nan,nan,nan,nan,nan,nan,nan,nan,nan,nan,nan,nan,nan,nan
nan,nan,nan,nan,nan,nan,nan,nan,nan,nan,nan,nan,1.201396731249999903e+03,1.120019150000000081e+03,1.003654125000000022e+03,8.887281812500000342e+02,8.495599124999999958e+02,8.422799687499999663e+02,7.579623749999999518e+02,6.850903124999999818e+02,7.178830500000000256e+02,7.141262999999999010e+02,5.810759374999998954e+02,4.316103312499999447e+02,3.664244062499999472e+02,3.431459375000000023e+02,3.128775687500000231e+02,2.891042874999999981e+02,3.006932499999999777e+02,3.680854062500000055e+02,3.990686062500000162e+02,3.319811625000000390e+02,2.509699687500000209e+02,2.185062437500000101e+02,2.243248499999999694e+02,2.320043687499999976e+02,2.245894624999999962e+02,2.012290062499999976e+02,1.663319250000000125e+02,1.377922624999999925e+02,1.318349499999999921e+02,1.269419399999999882e+02,1.099750549999999976e+02,9.889914687499998536e+01,9.419494124999999940e+01,9.388498249999999246e+01,8.695956937500000095e+01,7.047912312500000098e+01,5.868168999999999613e+01,5.308085125000000204e+01,5.001195312499999801e+01,4.790168937500000368e+01,4.650946687500000110e+01,4.563055875000000583e+01,4.453143562500000030e+01,4.369296125000000330e+01,4.319632124999999689e+01,4.329991749999999229e+01,4.432882999999999640e+01,4.451773062499999867e+01,4.308797062500000408e+01,4.137399687500000312e+01,4.010283062500000284e+01,3.926956812499999927e+01,3.885725874999999974e+01,3.848667999999999978e+01,3.773623062499999747e+01,3.701992375000000379e+01,3.666642062500000065e+01,3.631409812500000100e+01,3.578106749999999892e+01,3.500209499999999707e+01,3.376295499999999095e+01,3.301226187500000009e+01,3.368864874999999870e+01,3.445076937500000014e+01,3.436436750000000018e+01,3.417313875000000678e+01,3.467928187500000092e+01,3.593566625000000414e+01,3.757759062499999914e+01,3.900103874999999931e+01,4.019633375000000086e+01,4.186086749999999768e+01,4.365597500000000508e+01,4.514006000000000540e+01,4.656346625000000472e+01,4.791458687499999769e+01,4.919431000000000154e+01,5.033227624999999961e+01,5.075593437500000249e+01,5.094114062500000273e+01,5.389133125000000035e+01,5.862875875000000292e+01,6.052390937500000234e+01,6.676263875000000780e+01,8.149709562499998583e+01,1.098964718750000031e+02,1.470134856250000155e+02,1.669785625000000095e+02,1.773992000000000075e+02,1.934755937500000016e+02,1.995758437499999900e+02,2.005863562499999944e+02,2.236880625000000009e+02,2.516408874999999625e+02,2.883194750000000113e+02,nan,nan,nan,nan,nan,nan,nan,nan,nan,nan,nan,nan,nan,nan,nan,nan,nan,nan,nan,nan,nan,nan,nan,nan,nan,nan,nan,nan,nan,nan,nan,nan,nan,nan,nan,nan,nan,nan
nan,nan,nan,nan,nan,nan,nan,nan,nan,nan,nan,1.189336562500000127e+03,1.081269399999999905e+03,9.982410749999999098e+02,9.286279187499999352e+02,8.502974312500000451e+02,7.719837812499999927e+02,7.216021375000000262e+02,6.927220312500001000e+02,7.215440125000000080e+02,7.632068124999999554e+02,6.872023187499999040e+02,5.408236124999999674e+02,4.268932124999999473e+02,3.672826624999999581e+02,3.326864687500000173e+02,3.029220750000000066e+02,2.848014749999999822e+02,3.036824624999999287e+02,3.818827249999999935e+02,4.230450562500000160e+02,3.577377749999999992e+02,2.652264374999999745e+02,2.287384187500000223e+02,2.447474062500000116e+02,2.616215312499999754e+02,2.542287437500000067e+02,2.126002187500000105e+02,1.566333687500000167e+02,1.268472812499999947e+02,1.228541974999999979e+02,1.186489050000000134e+02,1.034161462500000113e+02,9.170664999999999623e+01,8.761635312499998918e+01,8.530261625000001402e+01,7.800120687500000827e+01,6.576127062500000875e+01,5.621496499999999941e+01,5.121414000000000044e+01,4.903822750000000497e+01,4.718077875000000176e+01,4.583283624999999972e+01,4.467391187500000171e+01,4.326735312500000674e+01,4.228433375000000183e+01,4.197351687500000139e+01,4.230180374999999771e+01,4.307681749999999710e+01,4.295747312499999282e+01,4.159045249999999783e+01,4.002945187499999946e+01,3.881464187499999952e+01,3.790929812499999940e+01,3.728381187499999783e+01,3.684798312499999895e+01,3.637820312499999886e+01,3.586907062500000620e+01,3.542390625000000171e+01,3.499942124999999749e+01,3.446037937499999515e+01,3.378775562499999552e+01,3.355216124999999749e+01,3.367498312499999713e+01,3.373548062500000100e+01,3.403183874999999858e+01,3.399113312499999751e+01,3.365548812500000508e+01,3.430747812500000293e+01,3.565033062500000227e+01,3.698791874999999862e+01,3.814791687499999995e+01,3.926349062499999576e+01,4.086274437499999834e+01,4.258501187499999219e+01,4.389051437499999508e+01,4.506537437499999754e+01,4.637088624999999809e+01,4.778191624999999476e+01,4.871353750000000105e+01,4.865499624999999639e+01,4.882438812499999869e+01,5.039587500000000375e+01,5.323623312500000537e+01,5.666373812500000895e+01,6.294430937499999601e+01,7.562327124999998773e+01,1.007169174999999939e+02,1.367900193750000142e+02,1.564137218749999931e+02,1.619876062499999989e+02,1.672179500000000303e+02,1.604858125000000086e+02,1.787967312500000219e+02,2.386163125000000207e+02,2.632625499999999761e+02,2.669031500000000392e+02,nan,nan,nan,nan,nan,nan,nan,nan,nan,nan,nan,nan,nan,nan,nan,nan,nan,nan,nan,nan,nan,nan,nan,nan,nan,nan,nan,nan,nan,nan,nan,nan,nan,nan,nan,nan,nan,nan
nan,nan,nan,nan,nan,nan,nan,nan,nan,nan,1.397300750000000107e+03,1.274054406249999829e+03,1.181176793750000115e+03,1.066138699999999972e+03,9.390475874999999633e+02,8.532190374999998994e+02,7.974838562499999171e+02,7.510182124999998905e+02,7.454835624999999482e+02,7.734206187500001306e+02,7.463644625000000588e+02,6.242801562499998909e+02,4.948787062499999934e+02,4.182717624999999657e+02,3.808467749999999796e+02,3.475505437499999744e+02,3.113000687499999799e+02,2.905539687499999673e+02,3.082620562500000005e+02,3.861267250000000217e+02,4.375079000000000065e+02,3.789244062500000041e+02,2.868736312500000167e+02,2.608370062500000017e+02,2.796284375000000182e+02,2.830921937499999785e+02,2.645543749999999932e+02,2.175506000000000313e+02,1.611689437500000111e+02,1.374226812499999824e+02,1.286699887499999875e+02,1.117145256249999932e+02,9.447359687499999836e+01,8.626542312499999809e+01,8.344391874999999459e+01,7.671158125000000894e+01,6.771749687499999482e+01,5.989415062500000175e+01,5.382844624999999894e+01,5.072801875000000393e+01,4.909261687500000448e+01,4.720752749999999764e+01,4.566939874999999915e+01,4.416810749999999786e+01,4.246888312499999785e+01,4.126020250000000544e+01,4.101428187499999467e+01,4.155752687500000064e+01,4.216586562499999502e+01,4.176518374999999139e+01,4.036788124999999638e+01,3.878862499999999613e+01,3.756251312499999528e+01,3.668185874999999641e+01,3.588051249999999470e+01,3.521047875000000005e+01,3.475586562499999843e+01,3.439665124999999790e+01,3.403035499999999303e+01,3.383756312499999552e+01,3.320925875000000360e+01,3.229262874999999866e+01,3.274727624999999875e+01,3.346875062499999842e+01,3.338147124999999704e+01,3.359857437499999833e+01,3.362675875000000048e+01,3.344804562499999889e+01,3.419141624999999607e+01,3.528806437499999760e+01,3.619459874999999727e+01,3.722650687499999833e+01,3.842736187499999545e+01,3.994233437500000150e+01,4.157387812499999313e+01,4.270636874999999577e+01,4.359388750000000101e+01,4.475632937499999997e+01,4.605875000000000341e+01,4.683014062500000563e+01,4.681119562500000342e+01,4.715744624999999246e+01,4.820557187500000396e+01,5.040672062500000550e+01,5.464545375000000860e+01,6.277012500000000728e+01,7.464714812500000107e+01,8.808291374999998880e+01,1.056470774999999946e+02,1.226909812500000072e+02,1.373341356250000160e+02,1.426871062499999994e+02,1.429097624999999994e+02,1.686461937500000090e+02,2.168463500000000295e+02,2.356944187500000112e+02,2.373766624999999806e+02,nan,nan,nan,nan,nan,nan,nan,nan,nan,nan,nan,nan,nan,nan,nan,nan,nan,nan,nan,nan,nan,nan,nan,nan,nan,nan,nan,nan,nan,nan,nan,nan,nan,nan,nan,nan,nan,nan
nan,nan,nan,nan,nan,nan,nan,nan,nan,nan,1.456563062500000115e+03,1.449708875000000035e+03,1.414198624999999993e+03,1.250655087500000036e+03,1.027426699999999983e+03,8.695000062499998421e+02,8.101115125000000035e+02,7.913128374999998869e+02,7.826201499999999669e+02,7.747619437500001141e+02,7.102595250000000533e+02,5.965034625000000688e+02,4.916443875000000503e+02,4.185554625000000328e+02,3.923059937499999705e+02,3.722909874999999715e+02,3.284055624999999736e+02,2.993786000000000058e+02,3.199327749999999924e+02,3.969658000000000015e+02,4.400674500000000080e+02,3.743668562499999553e+02,2.983088250000000130e+02,3.006431687499999725e+02,3.182065625000000182e+02,2.894889874999999506e+02,2.426787562499999922e+02,2.014053812500000049e+02,1.679219249999999874e+02,1.601088312499999802e+02,1.549049787499999979e+02,1.229878556249999946e+02,9.410177062500000034e+01,8.457585312499999475e+01,7.878559312499999123e+01,6.933153062499999919e+01,6.161573437500000239e+01,5.670207187500000146e+01,5.244512812499999654e+01,5.011149500000000501e+01,4.844845750000000351e+01,4.683427750000000600e+01,4.558157375000000400e+01,4.408390812500000067e+01,4.213196999999999548e+01,4.067788062500000024e+01,4.040906000000000375e+01,4.086154437500000114e+01,4.109489374999999711e+01,4.048755624999999725e+01,3.917655375000000362e+01,3.757528125000000330e+01,3.625700687500000186e+01,3.539402249999999839e+01,3.461067062499999736e+01,3.392003562499999703e+01,3.336332124999999849e+01,3.281183187500000287e+01,3.246009312500000021e+01,3.248648812499999394e+01,3.195274625000000057e+01,3.139891937499999841e+01,3.217651749999999566e+01,3.280401125000000206e+01,3.273438187499999685e+01,3.307643124999999884e+01,3.337031437499999242e+01,3.329393312499999524e+01,3.379391312500000311e+01,3.468932750000000453e+01,3.535233812500000283e+01,3.618336187500000278e+01,3.734090562499999777e+01,3.893679749999999729e+01,4.066749812499999450e+01,4.158722312500000129e+01,4.216729312500000049e+01,4.308355249999999614e+01,4.399675624999999712e+01,4.466857500000000414e+01,4.514666499999999871e+01,4.580297625000000039e+01,4.682143687499999629e+01,4.868227187499999786e+01,5.241162124999999605e+01,5.926863437500000487e+01,6.728204374999999970e+01,7.501254000000000133e+01,8.360012625000000241e+01,9.384963437499999372e+01,1.069570475000000016e+02,1.154098306249999979e+02,1.289496481250000102e+02,1.556154937499999846e+02,1.758880312499999832e+02,1.813717374999999947e+02,1.951657749999999965e+02,nan,nan,nan,nan,nan,nan,nan,nan,nan,nan,nan,nan,nan,nan,nan,nan,nan,nan,nan,nan,nan,nan,nan,nan,nan,nan,nan,nan,nan,nan,nan,nan,nan,nan,nan,nan,nan,nan
nan,nan,nan,nan,nan,nan,nan,nan,nan,1.474805687499999976e+03,1.450710000000000036e+03,1.584580312500000218e+03,1.618829375000000255e+03,1.389222437500000069e+03,1.099218643749999956e+03,8.854375000000000000e+02,7.844301312500000449e+02,7.783010874999999942e+02,7.647070624999998927e+02,7.197506687499999316e+02,6.534281375000000480e+02,5.707952812500000164e+02,4.829152812500000209e+02,4.072983250000000339e+02,3.828926625000000286e+02,3.739393937499999083e+02,3.341002124999999978e+02,3.046426812500000096e+02,3.289986000000000104e+02,4.033345499999999788e+02,4.313712187500000255e+02,3.545744687500000509e+02,2.965742500000000064e+02,3.210788000000000011e+02,3.308291500000000269e+02,2.773574312499999905e+02,2.092532062500000052e+02,1.746401187499999992e+02,1.633944000000000187e+02,1.612580312499999877e+02,1.581239937500000110e+02,1.325998831250000194e+02,1.069130806249999921e+02,9.429508000000001289e+01,8.089164500000001112e+01,6.739403062499999919e+01,5.977097687499999523e+01,5.598008312500000017e+01,5.225067750000000188e+01,4.922292937499999965e+01,4.705974499999999949e+01,4.567234937499999603e+01,4.474409249999999361e+01,4.353334812500000339e+01,4.162149187500000380e+01,4.003418999999999528e+01,3.973954249999999888e+01,3.986143875000000492e+01,3.947002625000000364e+01,3.869553499999999957e+01,3.764087062499999803e+01,3.621555562500000036e+01,3.492742375000000266e+01,3.400648687500000733e+01,3.319670187500000225e+01,3.260840749999999844e+01,3.212242312499999741e+01,3.147538124999999809e+01,3.117611249999999856e+01,3.125109249999999861e+01,3.116645625000000308e+01,3.159290250000000100e+01,3.210816125000000198e+01,3.196434749999999880e+01,3.191288562499999770e+01,3.234797625000000210e+01,3.278043999999999869e+01,3.278176124999999530e+01,3.314518999999999949e+01,3.396332562499999597e+01,3.453343250000000353e+01,3.515781124999999463e+01,3.614410250000000246e+01,3.766774875000000122e+01,3.928796062499999664e+01,4.016401187499999992e+01,4.081366562500000583e+01,4.167281312499999757e+01,4.237027812499999868e+01,4.294183687499999991e+01,4.376200874999999968e+01,4.474681749999999880e+01,4.586419374999999832e+01,4.758811374999999799e+01,5.079728812499999435e+01,5.570618750000000574e+01,6.103844000000000847e+01,6.767335937500000398e+01,7.541912687500000345e+01,8.295966124999999636e+01,9.036088437499998349e+01,9.915456312499998148e+01,1.161201981250000017e+02,1.387389875000000075e+02,1.492817249999999945e+02,1.516924812499999859e+02,1.789919562499999870e+02,nan,nan,nan,nan,nan,nan,nan,nan,nan,nan,nan,nan,nan,nan,nan,nan,nan,nan,nan,nan,nan,nan,nan,nan,nan,nan,nan,nan,nan,nan,nan,nan,nan,nan,nan,nan,nan,nan
nan,nan,nan,nan,nan,1.571606187500000033e+03,1.495534750000000031e+03,1.475927062499999920e+03,1.467022437500000024e+03,1.402551812499999869e+03,1.408927874999999858e+03,1.619752687499999865e+03,1.726977125000000115e+03,1.481410687499999995e+03,1.148028193749999900e+03,9.095369062500000155e+02,7.761271625000000540e+02,7.364004125000000158e+02,6.831023625000000266e+02,6.056199687499999982e+02,5.588508937499999547e+02,5.112103937499999802e+02,4.429974124999999958e+02,3.875040874999999687e+02,3.710451999999999657e+02,3.641781062499999848e+02,3.303664750000000367e+02,3.067110999999999876e+02,3.388889874999999847e+02,4.105492749999999660e+02,4.292752874999999904e+02,3.508645874999999705e+02,3.009190312499999891e+02,3.357124312500000087e+02,3.377713687499999651e+02,2.668375062499999899e+02,1.908663437499999986e+02,1.577881750000000238e+02,1.537151812500000005e+02,1.449329749999999990e+02,1.401244187500000180e+02,1.409707875000000001e+02,1.308311581250000017e+02,1.108825956249999933e+02,8.699119187500001260e+01,6.723864562500000375e+01,5.828127874999999847e+01,5.497330499999999631e+01,5.178498749999999262e+01,4.867172062499999896e+01,4.595759937500000092e+01,4.408332500000000209e+01,4.316431187500000277e+01,4.242012937500000191e+01,4.084299187499999562e+01,3.919075999999999738e+01,3.863536312499999781e+01,3.842964437500000230e+01,3.765777750000000168e+01,3.684815124999999369e+01,3.618737812499999507e+01,3.497729687500000040e+01,3.369220437500000287e+01,3.268778749999999889e+01,3.176494000000000284e+01,3.121528749999999874e+01,3.090729250000000050e+01,3.052663250000000161e+01,3.057130687500000121e+01,3.114113875000000320e+01,3.161421187500000229e+01,3.184597812499999847e+01,3.156842062500000168e+01,3.110660374999999789e+01,3.129464000000000112e+01,3.202549937499999544e+01,3.229863625000000127e+01,3.209808249999999674e+01,3.245848937499999920e+01,3.323854874999999964e+01,3.380992312499999741e+01,3.434084124999999688e+01,3.519488312500000404e+01,3.647105750000000057e+01,3.767154750000000263e+01,3.854613500000000670e+01,3.947892812499999593e+01,4.048998124999999959e+01,4.129252999999999929e+01,4.186844750000000204e+01,4.280667812499999769e+01,4.408473812500000122e+01,4.546800562499999643e+01,4.717050499999999857e+01,4.998767999999999745e+01,5.505010750000000286e+01,6.134793187500000045e+01,6.703155000000000996e+01,7.174063999999999908e+01,7.786479562499999929e+01,8.529329937500000369e+01,9.543743750000001569e+01,1.097589643750000050e+02,1.231983937500000081e+02,1.316561187499999903e+02,1.466998562499999821e+02,1.875900500000000193e+02,nan,nan,nan,nan,nan,nan,nan,nan,nan,nan,nan,nan,nan,nan,nan,nan,nan,nan,nan,nan,nan,nan,nan,nan,nan,nan,nan,nan,nan,nan,nan,nan,nan,nan,nan,nan,nan,nan
nan,nan,nan,nan,1.780298750000000155e+03,1.712728937499999802e+03,1.554370562500000005e+03,1.448628999999999905e+03,1.381713187500000004e+03,1.297934206249999988e+03,1.311338412500000004e+03,1.539436893749999854e+03,1.704648000000000138e+03,1.527571750000000065e+03,1.183370324999999866e+03,9.059758374999998978e+02,7.653886499999999842e+02,7.032091000000000349e+02,6.048880187500000147e+02,5.147906125000000657e+02,4.889994812499999739e+02,4.602870437499999525e+02,4.158091062500000135e+02,3.891199687500000550e+02,3.806057187499999941e+02,3.607660687499999881e+02,3.244886937500000386e+02,3.120438937499999952e+02,3.590487999999999715e+02,4.316427999999999656e+02,4.393010562499999878e+02,3.624444875000000366e+02,3.152619937499999878e+02,3.456333937499999820e+02,3.365810624999999732e+02,2.569953874999999925e+02,1.831471187500000042e+02,1.491527499999999975e+02,1.454922187500000064e+02,1.384474500000000035e+02,1.318556131249999908e+02,1.393511681250000152e+02,1.383681468749999794e+02,1.203021243749999769e+02,9.065744624999999246e+01,6.547838187499999663e+01,5.625493562500000166e+01,5.328434312499999237e+01,5.037575062499999490e+01,4.752321500000000043e+01,4.477692500000000564e+01,4.252825312500000621e+01,4.139318062499999940e+01,4.091522562500000504e+01,3.978603125000000063e+01,3.810158687500000241e+01,3.699743000000000137e+01,3.654740937500000086e+01,3.591281562499999325e+01,3.533173624999999873e+01,3.492957874999999746e+01,3.380480687500000414e+01,3.259443499999999716e+01,3.172390750000000281e+01,3.077068874999999792e+01,3.005942312499999858e+01,2.974722249999999946e+01,2.979393375000000077e+01,3.041988937500000034e+01,3.151881687499999884e+01,3.222017499999999757e+01,3.182018124999999742e+01,3.111829062500000020e+01,3.081731937499999674e+01,3.107479062500000211e+01,3.190123687500000216e+01,3.209995562499999977e+01,3.174763312500000012e+01,3.194601749999999996e+01,3.259621812500000004e+01,3.314872687500000126e+01,3.369402999999999793e+01,3.456522062500000203e+01,3.559378999999999849e+01,3.648934625000000409e+01,3.734446062500000352e+01,3.833235249999999894e+01,3.949739437499999894e+01,4.051259062500000141e+01,4.116033312500000108e+01,4.212824437500000130e+01,4.347102437499999894e+01,4.488063375000000121e+01,4.628866812500000094e+01,4.901565812500000163e+01,5.485351062499999841e+01,6.178088687500000020e+01,6.611514750000000618e+01,6.931409437499999626e+01,7.533213625000000491e+01,8.251030812499999456e+01,9.055221937500002127e+01,1.020346300000000213e+02,1.146655512499999929e+02,1.304387125000000083e+02,1.663544875000000047e+02,2.279886625000000038e+02,nan,nan,nan,nan,nan,nan,nan,nan,nan,nan,nan,nan,nan,nan,nan,nan,nan,nan,nan,nan,nan,nan,nan,nan,nan,nan,nan,nan,nan,nan,nan,nan,nan,nan,nan,nan,nan,nan
nan,nan,nan,nan,nan,1.852430062500000076e+03,1.727469749999999749e+03,1.607753874999999880e+03,1.456548375000000078e+03,1.275310537500000009e+03,1.188663887500000101e+03,1.325205975000000080e+03,1.497907499999999800e+03,1.445071187499999951e+03,1.177561631250000119e+03,8.757050937499999463e+02,7.381916312500000004e+02,7.029756125000000111e+02,5.904474500000000035e+02,4.881212000000000444e+02,4.650860062499999685e+02,4.319249249999999734e+02,3.933110625000000482e+02,3.935247750000000906e+02,4.008662812500000427e+02,3.643641749999999888e+02,3.234684500000000185e+02,3.222454687499999864e+02,3.652239562500000147e+02,4.292812624999999684e+02,4.362068812499999808e+02,3.667903874999999516e+02,3.255434124999999881e+02,3.445972187500000246e+02,3.177425875000000133e+02,2.359820812500000216e+02,1.726238125000000139e+02,1.421274124999999913e+02,1.353350312499999859e+02,1.350921437500000195e+02,1.248584899999999891e+02,1.139366637499999797e+02,1.171706137500000011e+02,1.191314487499999899e+02,9.374020249999999521e+01,6.434770625000000166e+01,5.451417125000000397e+01,5.176217312500000389e+01,4.884124125000000305e+01,4.580649937500000135e+01,4.318200000000000216e+01,4.103393499999999960e+01,3.971785500000000013e+01,3.914432437500000361e+01,3.840192875000000328e+01,3.708074187500000107e+01,3.566230000000000189e+01,3.488806937500000060e+01,3.435249312499999519e+01,3.394059249999999395e+01,3.358869687499999657e+01,3.254309687500000337e+01,3.153754250000000070e+01,3.092397937499999827e+01,3.004011625000000052e+01,2.918273312500000216e+01,2.887749750000000049e+01,2.930129499999999965e+01,3.022556812499999879e+01,3.122657937500000358e+01,3.182444500000000076e+01,3.132002000000000308e+01,3.054138812500000100e+01,3.063403312500000197e+01,3.131608562499999948e+01,3.191014624999999683e+01,3.177829374999999601e+01,3.139692124999999834e+01,3.156708937500000189e+01,3.208488375000000303e+01,3.250366312500000276e+01,3.306616000000000355e+01,3.389689062499999750e+01,3.467650375000000196e+01,3.551584312500000351e+01,3.650520124999999894e+01,3.751072062499999760e+01,3.873039124999999672e+01,3.989780500000000529e+01,4.068257062500000387e+01,4.160420750000000112e+01,4.282824937500000573e+01,4.449458312500000545e+01,4.650633437499999445e+01,4.945328249999999315e+01,5.382048062500000185e+01,5.831484062499999510e+01,6.190994687500000282e+01,6.690250062499998762e+01,7.420792875000000777e+01,8.066452750000000549e+01,8.813399437500001454e+01,1.023949418750000149e+02,1.224705962499999998e+02,1.512875624999999786e+02,2.116012562500000058e+02,3.017069250000000125e+02,3.661410624999999754e+02,nan,nan,nan,nan,nan,nan,nan,nan,nan,nan,nan,nan,nan,nan,nan,nan,nan,nan,nan,nan,nan,nan,nan,nan,nan,nan,nan,nan,nan,nan,nan,nan,nan,nan,nan,nan,nan
nan,nan,nan,nan,nan,1.922633562500000153e+03,1.895954250000000229e+03,1.813658374999999978e+03,1.622457312499999944e+03,1.374857456249999814e+03,1.149034468750000087e+03,1.090584356249999928e+03,1.181723912499999869e+03,1.230610599999999977e+03,1.104913412500000049e+03,8.537328687499999660e+02,7.395312062499999683e+02,7.297131624999999531e+02,6.047799250000000484e+02,4.782890625000000000e+02,4.505836500000000342e+02,4.202020500000000425e+02,3.750180812500000229e+02,3.787655312500000377e+02,3.978783187499999485e+02,3.678142812500000218e+02,3.325623062500000060e+02,3.330763749999999845e+02,3.670978562500000066e+02,4.246737312500000030e+02,4.277756249999999909e+02,3.647692937499999744e+02,3.411013937499999997e+02,3.539290437500000053e+02,3.057417312500000435e+02,2.147148124999999936e+02,1.596192312499999844e+02,1.412981187499999862e+02,1.353863437500000089e+02,1.316201843750000080e+02,1.163328406250000029e+02,9.774341687499999409e+01,9.827146374999998102e+01,1.053298462499999744e+02,8.629018937499999709e+01,6.084814687499999764e+01,5.252891437499999938e+01,5.025128500000000287e+01,4.767371562499999982e+01,4.455930812500000826e+01,4.178741500000000286e+01,3.962755312499999860e+01,3.819359250000000117e+01,3.735489312500000381e+01,3.681301437500000873e+01,3.627659687500000274e+01,3.524754625000000630e+01,3.420290937500000439e+01,3.331031374999999883e+01,3.270885749999999348e+01,3.235785062499999754e+01,3.146086312500000304e+01,3.052140874999999909e+01,2.995635625000000246e+01,2.919142250000000161e+01,2.847607062500000197e+01,2.850391750000000002e+01,2.905055000000000121e+01,2.959214624999999899e+01,3.023912562499999979e+01,3.071047125000000122e+01,3.012322812500000069e+01,2.947890687499999984e+01,3.038135375000000238e+01,3.180924187500000144e+01,3.216496250000000146e+01,3.139548812499999642e+01,3.070102874999999898e+01,3.088159875000000198e+01,3.137510687500000017e+01,3.182806000000000779e+01,3.245205187500000221e+01,3.311326937499999445e+01,3.373816312499999981e+01,3.465533375000000404e+01,3.582003000000000270e+01,3.688575249999999528e+01,3.804211062499999230e+01,3.921953937499999654e+01,4.010325562499999563e+01,4.107457374999999900e+01,4.246135874999999515e+01,4.474953812500000083e+01,4.785023062500000179e+01,5.067359874999999647e+01,5.268937437499999987e+01,5.564974687499999817e+01,6.108594062500000632e+01,6.813567250000001252e+01,7.479070687499999792e+01,8.069990937500000427e+01,9.128958187500001031e+01,1.140678712499999961e+02,1.448258199999999931e+02,1.871689374999999984e+02,2.639705562499999587e+02,3.590769374999999854e+02,4.134648062499999810e+02,nan,nan,nan,nan,nan,nan,nan,nan,nan,nan,nan,nan,nan,nan,nan,nan,nan,nan,nan,nan,nan,nan,nan,nan,nan,nan,nan,nan,nan,nan,nan,nan,nan,nan,nan,nan,nan
nan,nan,nan,nan,nan,nan,1.957543750000000045e+03,1.877106312500000058e+03,1.700097624999999880e+03,1.461755499999999984e+03,1.197485550000000103e+03,9.838622937499999352e+02,9.209821187499999269e+02,9.661162000000000489e+02,9.375642624999999271e+02,8.103772624999999152e+02,7.720439562500000648e+02,7.542019562499999665e+02,6.144447499999998854e+02,4.737413312500000302e+02,4.329817062500000020e+02,4.170621874999999932e+02,3.742987312500000598e+02,3.563394250000000056e+02,3.620074687499999868e+02,3.501117687500000102e+02,3.351835312499999873e+02,3.410564062500000091e+02,3.794423500000000331e+02,4.355895499999999743e+02,4.247055500000000166e+02,3.709354124999999840e+02,3.743210875000000328e+02,3.750237812500000700e+02,2.992087937500000407e+02,2.015924687499999948e+02,1.538592937500000062e+02,1.491861562500000105e+02,1.510042937500000164e+02,1.413994312500000206e+02,1.276551887500000078e+02,1.150994062499999870e+02,9.608366749999999001e+01,8.292333000000000709e+01,6.970621249999999236e+01,5.541590312499999982e+01,5.033001375000000621e+01,4.847284750000000031e+01,4.634848750000000450e+01,4.352909562500000362e+01,4.080131437500000402e+01,3.849989750000000299e+01,3.679836687499999925e+01,3.573040750000000543e+01,3.528033625000000484e+01,3.520716687499999864e+01,3.465509624999999971e+01,3.375336499999999518e+01,3.276898375000000385e+01,3.194798812499999840e+01,3.146277062499999744e+01,3.057215937500000535e+01,2.953647374999999897e+01,2.890995625000000047e+01,2.826939125000000175e+01,2.786374312499999917e+01,2.835277562499999959e+01,2.852375250000000051e+01,2.802633937499999917e+01,2.858948437499999784e+01,2.963156562499999680e+01,2.943347812499999705e+01,2.915975375000000014e+01,3.048545062499999858e+01,3.198177499999999895e+01,3.207661499999999677e+01,3.108662312499999558e+01,3.017415812500000172e+01,3.010467125000000266e+01,3.050823125000000147e+01,3.112556687499999697e+01,3.182019249999999744e+01,3.240586749999999938e+01,3.304992812500000099e+01,3.398696437499999945e+01,3.515397062499999947e+01,3.624118562499999996e+01,3.733689624999999523e+01,3.847088875000000030e+01,3.940670124999999757e+01,4.053363499999999675e+01,4.219578062499999760e+01,4.457810999999999524e+01,4.745914437499999394e+01,4.990758875000000216e+01,5.171679499999999052e+01,5.566821250000000987e+01,6.358116187500000649e+01,7.181435875000001090e+01,7.739551124999999843e+01,8.375093062500000940e+01,9.810142687500000136e+01,1.276329168750000065e+02,1.674314124999999933e+02,2.224190250000000049e+02,3.035206312500000081e+02,3.815033624999999802e+02,4.222717187499999909e+02,nan,nan,nan,nan,nan,nan,nan,nan,nan,nan,nan,nan,nan,nan,nan,nan,nan,nan,nan,nan,nan,nan,nan,nan,nan,nan,nan,nan,nan,nan,nan,nan,nan,nan,nan,nan,nan
nan,nan,nan,nan,nan,nan,1.956392624999999725e+03,1.846857874999999922e+03,1.681563937500000065e+03,1.477831562500000018e+03,1.240068706250000105e+03,9.593926999999999907e+02,7.666543374999998832e+02,7.481149124999999458e+02,7.498444562499998938e+02,7.410595437500001026e+02,7.732602249999999913e+02,7.387682937499999980e+02,6.086971499999999651e+02,4.711960374999999885e+02,4.050907062499999824e+02,3.889239187499999844e+02,3.627913250000000289e+02,3.387444375000000036e+02,3.379861812500000156e+02,3.419052625000000489e+02,3.354757937500000367e+02,3.489993000000000620e+02,3.978592749999999683e+02,4.422380562499999996e+02,4.185530937500000164e+02,3.800877625000000535e+02,3.989538750000000391e+02,3.766517875000000117e+02,2.776547562500000481e+02,1.902115062500000136e+02,1.561772187500000086e+02,1.577932750000000226e+02,1.621432312500000137e+02,1.508447406250000142e+02,1.455309562500000027e+02,1.410209262500000023e+02,1.050452368750000005e+02,7.285706499999999153e+01,6.075788500000000170e+01,5.243707874999999774e+01,4.871362187500000118e+01,4.677850062499999950e+01,4.472905250000000166e+01,4.216056624999999514e+01,3.970887687500000141e+01,3.744892000000000110e+01,3.555838500000000124e+01,3.439190874999999892e+01,3.398061124999999549e+01,3.391364749999999617e+01,3.349679187499999955e+01,3.288946874999999892e+01,3.221349437500000334e+01,3.144938125000000184e+01,3.076342750000000592e+01,2.966723624999999842e+01,2.848567687499999934e+01,2.783660875000000345e+01,2.739698375000000397e+01,2.740115124999999807e+01,2.814678375000000088e+01,2.771756750000000125e+01,2.611928999999999945e+01,2.665204749999999834e+01,2.866977750000000214e+01,2.915806937499999663e+01,2.910424187499999960e+01,3.039542750000000382e+01,3.151071124999999995e+01,3.131502687500000093e+01,3.058948750000000061e+01,2.990543124999999947e+01,2.969054000000000215e+01,2.998671937499999984e+01,3.052324374999999890e+01,3.115382062500000160e+01,3.187353062500000078e+01,3.259747000000000128e+01,3.340087624999999605e+01,3.445054062500000214e+01,3.553644750000000130e+01,3.663280437499999920e+01,3.780896750000000850e+01,3.883581625000000059e+01,4.002299187500000244e+01,4.175994312499999950e+01,4.391866624999999402e+01,4.602992374999999470e+01,4.837700812499999614e+01,5.187898437500000171e+01,5.752895937499999945e+01,6.516292937500000448e+01,7.215742937500000664e+01,7.814673937499999568e+01,8.798297937499999932e+01,1.094890737500000029e+02,1.505151031249999960e+02,2.021402249999999867e+02,2.565816687500000057e+02,3.223858812500000113e+02,3.847921499999999924e+02,4.169652312499999880e+02,nan,nan,nan,nan,nan,nan,nan,nan,nan,nan,nan,nan,nan,nan,nan,nan,nan,nan,nan,nan,nan,nan,nan,nan,nan,nan,nan,nan,nan,nan,nan,nan,nan,nan,nan,nan,nan
nan,nan,nan,nan,nan,nan,nan,1.839874562499999683e+03,1.671961624999999913e+03,1.470163937499999975e+03,1.221962718750000022e+03,9.153696374999999534e+02,6.885894124999999804e+02,6.345173312499999838e+02,6.519757875000000240e+02,6.901641937500000950e+02,7.171453687500001024e+02,6.925650375000000167e+02,6.072711874999999964e+02,4.778016374999999698e+02,3.885827312499999380e+02,3.599257499999999936e+02,3.482553000000000338e+02,3.365142562500000167e+02,3.486037562500000035e+02,3.669987500000000296e+02,3.494968750000000455e+02,3.579377937500000257e+02,4.203956875000000082e+02,4.604575187500000197e+02,4.280300500000000170e+02,3.978166187499999751e+02,4.139394750000000158e+02,3.719149125000000140e+02,2.703279875000000061e+02,1.962706249999999955e+02,1.606318625000000111e+02,1.536153500000000349e+02,1.585243687500000078e+02,1.477427250000000072e+02,1.390867437499999824e+02,1.387491474999999923e+02,1.129331531250000040e+02,7.816070999999999458e+01,5.880125187500000550e+01,5.030824312500000417e+01,4.743606187500000004e+01,4.542288812500000006e+01,4.323059250000000020e+01,4.072884499999999264e+01,3.841766625000000346e+01,3.629232999999999976e+01,3.442912562499999751e+01,3.324111374999999668e+01,3.280045499999999947e+01,3.264564562500000022e+01,3.227823125000000459e+01,3.183396937500000234e+01,3.137374750000000034e+01,3.075368187500000516e+01,3.008899000000000257e+01,2.903823562500000222e+01,2.776248812500000085e+01,2.696279249999999905e+01,2.664021125000000012e+01,2.698269625000000005e+01,2.783807437499999793e+01,2.751579562500000264e+01,2.609549437500000124e+01,2.641905875000000137e+01,2.823324687499999897e+01,2.874026312499999847e+01,2.873040499999999753e+01,2.986395187500000148e+01,3.054416875000000076e+01,3.007836750000000237e+01,2.959910187500000234e+01,2.929462124999999872e+01,2.926496687499999894e+01,2.966857187499999782e+01,3.009530312499999738e+01,3.061895249999999891e+01,3.145613312499999736e+01,3.222090562500000033e+01,3.294751124999999803e+01,3.387975562500000137e+01,3.490769249999999602e+01,3.606681749999999909e+01,3.728222250000000315e+01,3.828051937499999724e+01,3.945015437499999678e+01,4.116366937499999779e+01,4.313023937500000216e+01,4.485806374999999946e+01,4.687303749999999525e+01,5.119134999999999991e+01,5.857041124999999937e+01,6.606733437500000150e+01,7.079470187500000122e+01,7.595350937500001010e+01,9.241629937499999414e+01,1.301597575000000120e+02,1.894206374999999980e+02,2.511025812500000143e+02,2.961538187500000276e+02,3.380378249999999980e+02,3.812424250000000256e+02,4.043179874999999583e+02,nan,nan,nan,nan,nan,nan,nan,nan,nan,nan,nan,nan,nan,nan,nan,nan,nan,nan,nan,nan,nan,nan,nan,nan,nan,nan,nan,nan,nan,nan,nan,nan,nan,nan,nan,nan,nan
nan,nan,nan,nan,nan,nan,nan,1.757298374999999851e+03,1.598938124999999673e+03,1.408358750000000100e+03,1.168153143750000027e+03,8.694592749999999342e+02,6.558195749999999862e+02,5.875357562500000768e+02,5.896387875000000349e+02,6.088965125000000853e+02,6.137777750000000196e+02,6.134528312500000311e+02,5.774254187499999489e+02,4.748730749999999716e+02,3.866542687500000284e+02,3.538920875000000024e+02,3.467435187500000211e+02,3.419864749999999276e+02,3.554007687499999406e+02,3.764120250000000283e+02,3.614314125000000217e+02,3.690983437500000264e+02,4.371713187500000686e+02,4.809347750000000019e+02,4.498663750000000050e+02,4.226577062500000466e+02,4.232958062499999983e+02,3.701547999999999661e+02,2.822053187499999467e+02,2.164511812499999905e+02,1.662395625000000052e+02,1.426498562499999991e+02,1.438922481250000089e+02,1.335689806249999947e+02,1.226366918749999968e+02,1.290403718750000053e+02,1.193843875000000025e+02,8.413287124999999378e+01,5.664773437500000597e+01,4.782797000000000054e+01,4.576209437500000377e+01,4.400588687500000162e+01,4.187668999999999642e+01,3.954351875000000405e+01,3.727878937500000234e+01,3.513489562499999863e+01,3.333482187500000293e+01,3.218372750000000337e+01,3.169780500000000245e+01,3.150576374999999629e+01,3.125782249999999607e+01,3.094684625000000011e+01,3.048027937500000206e+01,2.981445375000000197e+01,2.932325875000000082e+01,2.863840312499999641e+01,2.740113187499999725e+01,2.644853812499999890e+01,2.621956125000000171e+01,2.674934749999999894e+01,2.767192812500000088e+01,2.775449312499999976e+01,2.725037562499999666e+01,2.771262562500000115e+01,2.856994937500000020e+01,2.853129687499999534e+01,2.846382312499999756e+01,2.912211250000000007e+01,2.939466000000000179e+01,2.895333687500000153e+01,2.860943562499999970e+01,2.849373999999999896e+01,2.871635062500000046e+01,2.933584125000000142e+01,2.983270375000000030e+01,3.027602124999999944e+01,3.096803375000000003e+01,3.169813124999999943e+01,3.245587937500000209e+01,3.332603875000000215e+01,3.429693875000000247e+01,3.557334937499999938e+01,3.687821874999999494e+01,3.779554749999999785e+01,3.892217625000000680e+01,4.051383312499999789e+01,4.207912312499999530e+01,4.334629812499999701e+01,4.475955937500000203e+01,4.800469999999999970e+01,5.461267562500000139e+01,6.441102250000000140e+01,7.135085937499999886e+01,7.446825687499999447e+01,9.494365062500000363e+01,1.449957499999999868e+02,2.118856499999999983e+02,2.750851499999999987e+02,3.171867187500000114e+02,3.485692312500000298e+02,3.737069062500000314e+02,nan,nan,nan,nan,nan,nan,nan,nan,nan,nan,nan,nan,nan,nan,nan,nan,nan,nan,nan,nan,nan,nan,nan,nan,nan,nan,nan,nan,nan,nan,nan,nan,nan,nan,nan,nan,nan,nan
nan,nan,nan,nan,nan,nan,nan,1.551114812499999971e+03,1.389933668749999924e+03,1.196867981249999957e+03,1.006604318749999948e+03,7.816842500000000200e+02,6.280543812500000058e+02,5.824227437499999951e+02,5.414322750000000042e+02,5.043340312500000664e+02,4.972334687499999859e+02,5.008157375000000116e+02,4.895192187499999932e+02,4.352780000000000200e+02,3.770573500000000422e+02,3.528259312499999965e+02,3.487113937500000134e+02,3.487611437500000306e+02,3.553749250000000188e+02,3.664936562500000150e+02,3.679278875000000539e+02,3.885127125000000206e+02,4.493536500000000160e+02,4.853678562500000453e+02,4.618314624999999864e+02,4.375180624999999850e+02,4.097435562499999833e+02,3.418602999999999952e+02,2.667873374999999783e+02,2.097240625000000023e+02,1.632221499999999992e+02,1.376317812500000173e+02,1.286622087500000191e+02,1.133158187500000054e+02,1.090477300000000014e+02,1.236953875000000096e+02,1.175119668750000130e+02,8.302963124999999422e+01,5.519089062499999443e+01,4.576688749999999573e+01,4.368971499999999963e+01,4.223186812499999832e+01,4.040107500000000584e+01,3.835270750000000106e+01,3.622260312499999912e+01,3.406407687499999781e+01,3.231379937500000210e+01,3.122509374999999920e+01,3.072147749999999888e+01,3.052448874999999973e+01,3.043503187499999640e+01,3.024655937499999681e+01,2.962911000000000428e+01,2.882619125000000082e+01,2.842489374999999896e+01,2.798780687500000042e+01,2.688745312500000040e+01,2.600247812499999966e+01,2.608705312500000062e+01,2.681722937500000015e+01,2.742333374999999762e+01,2.719292437500000048e+01,2.715237562499999768e+01,2.797341874999999689e+01,2.845323687499999465e+01,2.829669687499999853e+01,2.800497812499999739e+01,2.804470999999999847e+01,2.826450874999999741e+01,2.826373249999999970e+01,2.817096749999999972e+01,2.808061437499999968e+01,2.831612687499999836e+01,2.890339062499999656e+01,2.940515937500000021e+01,2.983905000000000030e+01,3.038492062499999946e+01,3.106081999999999965e+01,3.184949625000000495e+01,3.273397562499999935e+01,3.370564625000000092e+01,3.498339437499999605e+01,3.633391625000000147e+01,3.728538562500000353e+01,3.835757812500000341e+01,3.978827937500000189e+01,4.100345124999999769e+01,4.176133749999999623e+01,4.278769125000000173e+01,4.514554750000000638e+01,4.933994812499999227e+01,5.944068437499998936e+01,7.147184124999999710e+01,7.734398625000000038e+01,9.282463749999999436e+01,1.311037231249999877e+02,1.911596681249999961e+02,2.574915374999999926e+02,3.029666187500000092e+02,3.387577249999999935e+02,3.650752625000000080e+02,nan,nan,nan,nan,nan,nan,nan,nan,nan,nan,nan,nan,nan,nan,nan,nan,nan,nan,nan,nan,nan,nan,nan,nan,nan,nan,nan,nan,nan,nan,nan,nan,nan,nan,nan,nan,nan,nan
nan,nan,nan,nan,nan,nan,1.331569281250000131e+03,1.278057443749999948e+03,1.130857837499999732e+03,9.469384625000000142e+02,8.038922937500001353e+02,6.679915687500001695e+02,6.053590625000000500e+02,6.149727250000000822e+02,5.601106624999999894e+02,4.804498812499999758e+02,4.469027562500000386e+02,4.273627812500000118e+02,4.115789437500000076e+02,3.908539749999999913e+02,3.673958250000000021e+02,3.555921749999999975e+02,3.550895062499999995e+02,3.657780687499999885e+02,3.734884562500000129e+02,3.728282125000000065e+02,3.877280562500000087e+02,4.164087999999999852e+02,4.588694000000000415e+02,4.868662874999999985e+02,4.736162187499999732e+02,4.522307562500000131e+02,4.002970187500000065e+02,3.190009937500000206e+02,2.489542437499999892e+02,1.908621687500000235e+02,1.564973125000000209e+02,1.442639000000000067e+02,1.301268043750000061e+02,1.086579262500000027e+02,1.028435456249999902e+02,1.117188962500000002e+02,1.002550075000000049e+02,7.272979562500000839e+01,5.288544812500000347e+01,4.411555062500000446e+01,4.181425062499999967e+01,4.058165812499999703e+01,3.910837250000000154e+01,3.716200625000000457e+01,3.506906999999999641e+01,3.297355999999999909e+01,3.119931375000000173e+01,3.007745000000000246e+01,2.963078624999999988e+01,2.952381812499999825e+01,2.949656437499999839e+01,2.929590999999999923e+01,2.867943312500000275e+01,2.798497125000000096e+01,2.761796250000000086e+01,2.720436125000000160e+01,2.627823062499999907e+01,2.557461874999999907e+01,2.589863562499999716e+01,2.673515375000000205e+01,2.696236499999999836e+01,2.643713812500000060e+01,2.644235125000000153e+01,2.712489437500000378e+01,2.791653875000000085e+01,2.843550125000000151e+01,2.778778750000000031e+01,2.710772749999999931e+01,2.733745187499999929e+01,2.771807000000000087e+01,2.784547500000000042e+01,2.768028687500000018e+01,2.781636812500000033e+01,2.835173687499999673e+01,2.882275124999999605e+01,2.934278312499999686e+01,2.995887249999999824e+01,3.061183062499999608e+01,3.134861437500000036e+01,3.219921499999999526e+01,3.321025062500000047e+01,3.441376562499999636e+01,3.562810312499999554e+01,3.662365812500000573e+01,3.764303375000000074e+01,3.883468062500000428e+01,3.983918687500000289e+01,4.046057187499999941e+01,4.125468812500000126e+01,4.325127812499999891e+01,4.599749812499999990e+01,5.212054874999999754e+01,6.455499874999999577e+01,7.647894937499999912e+01,8.685273562500000821e+01,1.075050462499999924e+02,1.519123256249999940e+02,2.099512687500000254e+02,2.547106687499999964e+02,3.039589000000000283e+02,3.483107625000000098e+02,nan,nan,nan,nan,nan,nan,nan,nan,nan,nan,nan,nan,nan,nan,nan,nan,nan,nan,nan,nan,nan,nan,nan,nan,nan,nan,nan,nan,nan,nan,nan,nan,nan,nan,nan,nan,nan,nan
nan,nan,nan,nan,nan,1.225458812500000022e+03,1.151834937500000024e+03,1.078457324999999855e+03,9.713829374999999118e+02,8.465016875000000027e+02,7.289017937500000244e+02,6.191225875000000087e+02,6.019493625000000065e+02,6.440619812500001444e+02,6.007089187500000662e+02,5.158769999999999527e+02,4.678233750000000555e+02,4.325497875000000363e+02,4.045727187500000355e+02,3.883721750000000270e+02,3.751654062499999895e+02,3.657796687499999848e+02,3.647964437499999804e+02,3.810284874999999829e+02,3.922595250000000533e+02,3.880102375000000166e+02,4.206959937499999569e+02,4.623037124999999605e+02,4.813580937499999663e+02,4.912945937499999900e+02,4.744197437499999523e+02,4.487845437500000685e+02,3.918250375000000076e+02,3.079954625000000306e+02,2.387792437500000062e+02,1.785953937499999995e+02,1.505133625000000279e+02,1.483004249999999900e+02,1.356930437499999869e+02,1.170660062500000009e+02,1.101545187499999940e+02,1.106110781249999917e+02,9.230490062500000192e+01,6.358175250000000034e+01,4.829429937500000136e+01,4.274121750000000475e+01,4.037714312500000347e+01,3.914203125000000227e+01,3.793663562500000097e+01,3.594413062499999967e+01,3.374615000000000009e+01,3.184914874999999768e+01,3.013173937500000221e+01,2.883789374999999566e+01,2.835859062499999794e+01,2.842936375000000027e+01,2.850896000000000186e+01,2.828168312500000070e+01,2.774251499999999737e+01,2.726077500000000242e+01,2.691694437500000348e+01,2.638776937499999775e+01,2.568634937499999893e+01,2.533585562499999710e+01,2.572794375000000144e+01,2.646028562500000092e+01,2.682932124999999957e+01,2.658643000000000001e+01,2.624904250000000161e+01,2.636883937500000030e+01,2.710378250000000122e+01,2.788985375000000033e+01,2.738696062500000039e+01,2.651097937500000157e+01,2.658498562500000162e+01,2.700743125000000333e+01,2.719879437499999852e+01,2.698495562499999778e+01,2.714942312499999844e+01,2.784835437499999955e+01,2.834141312499999898e+01,2.890225625000000065e+01,2.959849874999999741e+01,3.019961249999999708e+01,3.084767749999999964e+01,3.166611812499999701e+01,3.269648250000000189e+01,3.387058312500000312e+01,3.498205624999999941e+01,3.588854437500000216e+01,3.689359499999999770e+01,3.792260999999999882e+01,3.859719312500000399e+01,3.918587187500000368e+01,3.999808812500000244e+01,4.159028000000000702e+01,4.382551250000000209e+01,4.748385874999999601e+01,5.680363249999999908e+01,6.879601062500000808e+01,7.869757874999999103e+01,9.629952562499998692e+01,1.315642343750000123e+02,1.833528249999999957e+02,2.270288250000000119e+02,2.654702562500000340e+02,3.065572437499999978e+02,nan,nan,nan,nan,nan,nan,nan,nan,nan,nan,nan,nan,nan,nan,nan,nan,nan,nan,nan,nan,nan,nan,nan,nan,nan,nan,nan,nan,nan,nan,nan,nan,nan,nan,nan,nan,nan,nan
nan,nan,nan,nan,1.197753375000000005e+03,1.156140000000000100e+03,1.144409343750000062e+03,1.101836881249999806e+03,1.005818999999999960e+03,8.830026187500000106e+02,7.343848187500000222e+02,6.107079312500000015e+02,6.169447187499999927e+02,6.784498875000000453e+02,6.470884187500000735e+02,5.711875999999999749e+02,5.206552437499999542e+02,4.743913312500000075e+02,4.348763812500000085e+02,4.125368437499999459e+02,3.929354375000000346e+02,3.759970562500000142e+02,3.685528437499999654e+02,3.776498125000000528e+02,3.899055500000000052e+02,3.964373500000000377e+02,4.478203062500000442e+02,5.082775374999999940e+02,5.131924312500000269e+02,4.841000249999999596e+02,4.452518374999999651e+02,4.209816000000000145e+02,3.655088187500000458e+02,2.713936312499999985e+02,2.021807687500000270e+02,1.570856249999999932e+02,1.386062562500000013e+02,1.421625750000000039e+02,1.386352812499999914e+02,1.273616243749999910e+02,1.190589800000000196e+02,1.131388518750000003e+02,9.243365749999999537e+01,6.160573124999999095e+01,4.549668625000000333e+01,4.145652500000000629e+01,3.908650750000000329e+01,3.767162500000000591e+01,3.651498125000000528e+01,3.449883499999999970e+01,3.225371750000000048e+01,3.065011874999999719e+01,2.923702124999999796e+01,2.786595437499999761e+01,2.724012249999999824e+01,2.739432562500000046e+01,2.762010937499999841e+01,2.744250437499999862e+01,2.686609812500000061e+01,2.644565187500000292e+01,2.618020750000000163e+01,2.560836000000000112e+01,2.501773624999999868e+01,2.492687437499999703e+01,2.546355312499999712e+01,2.622370624999999933e+01,2.656395437500000156e+01,2.644195187500000088e+01,2.622342874999999651e+01,2.623986062499999861e+01,2.640034937500000112e+01,2.637698499999999768e+01,2.608783937500000150e+01,2.581260437499999938e+01,2.597064812500000031e+01,2.635410625000000095e+01,2.657722562500000052e+01,2.638704312499999816e+01,2.646215749999999645e+01,2.720939249999999987e+01,2.778099187499999800e+01,2.831181750000000008e+01,2.903148812500000275e+01,2.960920749999999657e+01,3.023696375000000103e+01,3.113507375000000366e+01,3.212691437500000546e+01,3.323182125000000298e+01,3.432408500000000373e+01,3.512295749999999828e+01,3.614817999999999643e+01,3.714931062499999825e+01,3.755185312500000094e+01,3.829823937500000142e+01,3.967171062500000289e+01,4.113046812500000016e+01,4.293743125000000305e+01,4.641918437499999328e+01,5.450938937499999781e+01,6.650167125000000112e+01,7.937131812500000194e+01,1.000907006250000109e+02,1.383882518749999804e+02,2.003325437500000135e+02,2.453999687499999993e+02,2.455617749999999830e+02,2.550569000000000131e+02,nan,nan,nan,nan,nan,nan,nan,nan,nan,nan,nan,nan,nan,nan,nan,nan,nan,nan,nan,nan,nan,nan,nan,nan,nan,nan,nan,nan,nan,nan,nan,nan,nan,nan,nan,nan,nan,nan
nan,nan,nan,1.344913499999999885e+03,1.302567437500000096e+03,1.231969312500000115e+03,1.228022124999999960e+03,1.212931250000000091e+03,1.111409943749999911e+03,9.620060562500000287e+02,7.894269625000000588e+02,6.596376187500000015e+02,6.709144562500000575e+02,7.375034624999999551e+02,7.136718437499999936e+02,6.564729999999999563e+02,6.192300187499999993e+02,5.598540812500000357e+02,5.022303312499999493e+02,4.675858312500000125e+02,4.231500312499999836e+02,3.805759562499999902e+02,3.641482312499999807e+02,3.663612249999999904e+02,3.801522374999999556e+02,4.107742625000000771e+02,4.694870562500000233e+02,5.239507499999999709e+02,5.254979062500000282e+02,4.614383749999999509e+02,4.020711499999999887e+02,3.947805624999999736e+02,3.383034812500000044e+02,2.278417499999999905e+02,1.623345999999999947e+02,1.372543187499999817e+02,1.277906749999999931e+02,1.362229249999999752e+02,1.527656687500000032e+02,1.527933687500000133e+02,1.313916562500000111e+02,1.117482375000000161e+02,8.773127187500000446e+01,5.876035937499999307e+01,4.429421562499999254e+01,4.005490375000000114e+01,3.769673875000000152e+01,3.619195687500000247e+01,3.500948499999999797e+01,3.316501999999999839e+01,3.097596312499999982e+01,2.935519500000000193e+01,2.809664749999999955e+01,2.689642249999999990e+01,2.634619562500000001e+01,2.657731499999999869e+01,2.680341812500000032e+01,2.652960249999999931e+01,2.593384187499999882e+01,2.553406312499999586e+01,2.528783562499999960e+01,2.478934437499999888e+01,2.427377625000000094e+01,2.429885875000000084e+01,2.491268562499999817e+01,2.565934000000000026e+01,2.598032375000000016e+01,2.588662500000000222e+01,2.570594499999999982e+01,2.585709625000000145e+01,2.619120250000000283e+01,2.593118937500000243e+01,2.551369625000000241e+01,2.535821500000000128e+01,2.547912750000000059e+01,2.580679374999999709e+01,2.592712875000000139e+01,2.567979250000000135e+01,2.575094500000000153e+01,2.654100437499999998e+01,2.721152687499999701e+01,2.772418812499999774e+01,2.842746812499999720e+01,2.907882374999999797e+01,2.979714562499999886e+01,3.071392562500000167e+01,3.162097750000000218e+01,3.272055000000000291e+01,3.385383625000000052e+01,3.461923124999999857e+01,3.543210562500000549e+01,3.614432250000000124e+01,3.670390812499999811e+01,3.845987250000000301e+01,4.108812375000000117e+01,4.317532812500000006e+01,4.528477250000000254e+01,5.151682687499999957e+01,6.316651062500000791e+01,7.493739999999999668e+01,8.526240000000001373e+01,1.003188318750000008e+02,1.290030074999999954e+02,1.811643018750000067e+02,2.205704299999999876e+02,2.108909125000000131e+02,2.046400750000000244e+02,nan,nan,nan,nan,nan,nan,nan,nan,nan,nan,nan,nan,nan,nan,nan,nan,nan,nan,nan,nan,nan,nan,nan,nan,nan,nan,nan,nan,nan,nan,nan,nan,nan,nan,nan,nan,nan,nan
