2.825102880658436334e+03,2.976095107453131732e+03,3.071842706904435545e+03,3.090624904740131115e+03,3.039980185947263635e+03,2.945890870294162596e+03,2.836276482243560167e+03,2.728263984148757572e+03,2.629556470050297321e+03,2.551440329218106854e+03,2.509498552049992213e+03,2.515671391556164963e+03,2.559818625209571564e+03,2.616613321140069729e+03,2.663525377229080732e+03,2.700707209266880000e+03,2.739824721841182964e+03,2.781563786008230181e+03,2.804514555707971340e+03,2.782010364273738560e+03,2.703467459228775624e+03,2.579222679469593004e+03,2.429897881420515205e+03,2.275435147081238028e+03,2.133875933546715260e+03,2.016604176192653540e+03,1.929457399786618225e+03,1.867058375247675258e+03,1.824119798811156670e+03,1.793603109282121750e+03,1.775354366712391311e+03,1.768029263831732806e+03,1.771572930955647053e+03,1.780906873952141495e+03,1.789308032312147816e+03,1.790362749580856644e+03,1.782559061118731734e+03,1.768923944520652412e+03,1.753883554336229281e+03,1.740012193263222116e+03,1.727841792409693426e+03,1.716812985825331452e+03,1.706820606614845246e+03,1.697786922725194245e+03,1.689716506630086769e+03,1.682141441853375909e+03,1.674628867550678024e+03,1.666909007773205303e+03,1.659274500838286940e+03,1.652206980643194584e+03,1.646052431031855122e+03,1.640472488949855006e+03,1.634979423868312779e+03,1.629172382258801917e+03,1.623101661332114190e+03,1.616816034141136925e+03,1.610385611949397799e+03,1.604000914494741437e+03,1.598053650358177038e+03,1.593023929279073172e+03,1.589117512574302509e+03,1.586313062033226743e+03,1.584316415180612694e+03,1.581981659299903413e+03,1.579013107757963553e+03,1.575264441396128859e+03,1.571515775034293711e+03,1.567767108672458335e+03,1.564018442310623414e+03,1.561519331402733542e+03,1.560269775948788265e+03,1.560269775948788265e+03,1.560269775948788265e+03,1.560269775948788265e+03,1.560269775948788265e+03,1.560269775948788265e+03,1.560269775948788265e+03,1.560269775948788265e+03,1.560269775948788265e+03,1.560269775948788265e+03,1.569941319920743808e+03,1.589284407864654895e+03,1.618299039780521298e+03,1.647313671696387701e+03,1.676328303612254103e+03,1.705342935528120734e+03,1.742770156988264034e+03,1.787099527511049928e+03,1.836078341716201521e+03,1.880783417162018168e+03,1.923659503124523781e+03,1.968850784941319716e+03,2.017433318091754018e+03,2.069882639841487617e+03,2.125139460448102454e+03,2.182725194330132581e+03,2.238535284255448460e+03,2.290743789056546575e+03,2.342141441853376364e+03,2.400038103947568743e+03,2.464090839811005026e+03,2.519928364578570381e+03,2.547517146776406207e+03,2.537469897881420366e+03,2.502328913275415289e+03,2.465454961133973484e+03,2.448097850937357180e+03,2.457149824721841014e+03,2.490877914951988714e+03,2.541795458009450158e+03,2.601499771376314584e+03,2.661507392165828151e+03,2.718552049992378670e+03,2.776130163084895685e+03,2.838916323731138164e+03,2.904983996342020419e+03,2.966278006401463244e+03,3.016402987349489194e+03,3.057495808565767675e+03
2.814234110653863809e+03,2.988719707361682595e+03,3.117436366407559944e+03,3.169588477366255120e+03,3.143167200121932183e+03,3.057524767565919774e+03,2.940288065843621098e+03,2.813289132754153343e+03,2.689838439262307020e+03,2.582706904435299293e+03,2.506402987349489194e+03,2.472772443225117968e+03,2.477319006249047106e+03,2.503534522176497376e+03,2.537027892089620764e+03,2.579827770156987754e+03,2.639612863892698897e+03,2.710150891632372804e+03,2.764046639231824429e+03,2.770251486053954523e+03,2.714723365340649252e+03,2.605654625819235207e+03,2.463939948178631766e+03,2.310893156531016757e+03,2.165900015241578785e+03,2.040812376162170722e+03,1.943244932174973201e+03,1.870245389422344488e+03,1.818978814205151593e+03,1.783066605700350465e+03,1.761929583904892525e+03,1.753289132754153343e+03,1.756332876085962653e+03,1.765784179240969706e+03,1.774990092973632272e+03,1.777972869989330775e+03,1.772973632068282313e+03,1.762517908855357291e+03,1.750128029263832104e+03,1.738091754305746008e+03,1.726910531931108153e+03,1.716328303612254103e+03,1.706360310928211902e+03,1.697043133668647897e+03,1.688498704465782339e+03,1.680472488949855233e+03,1.672787684804145556e+03,1.665287303764670014e+03,1.658212162780064091e+03,1.651783264746227815e+03,1.646101204084743131e+03,1.640701112635269055e+03,1.635119646395366544e+03,1.629050449626581212e+03,1.622615454961133764e+03,1.615951836610272494e+03,1.609180003048315712e+03,1.602531626276482257e+03,1.596370980033531396e+03,1.591170553269318589e+03,1.587162017985063130e+03,1.584392623075750635e+03,1.582253975511863018e+03,1.579797541025250212e+03,1.576659045877152721e+03,1.572989635726261440e+03,1.569320225575369705e+03,1.565650815424477742e+03,1.562390133617842821e+03,1.560352588528171509e+03,1.559538180155464033e+03,1.559538180155464033e+03,1.559538180155464033e+03,1.559538180155464033e+03,1.559538180155464033e+03,1.559538180155464033e+03,1.559538180155464033e+03,1.559538180155464033e+03,1.559538180155464033e+03,1.561865484597537488e+03,1.572666768277193569e+03,1.591942031194431593e+03,1.617363968907178787e+03,1.642785906619925981e+03,1.668207844332672721e+03,1.694095242933834697e+03,1.728893207336280057e+03,1.772216125590611227e+03,1.822267946959304936e+03,1.870528882792257036e+03,1.917732053040695064e+03,1.966378600823044962e+03,2.016253619875019240e+03,2.067878372199359546e+03,2.119753086419753345e+03,2.171697911903673685e+03,2.220736168267032554e+03,2.268564243255601014e+03,2.320490778844688521e+03,2.383356195701874640e+03,2.452060661484529646e+03,2.507956104252400564e+03,2.529756134735558589e+03,2.512199359853681017e+03,2.472193263222069618e+03,2.437003505563176077e+03,2.427064471879286884e+03,2.447107148300563495e+03,2.490045724737082310e+03,2.544697454656301943e+03,2.601246761164456530e+03,2.654162475232433735e+03,2.704439871970736476e+03,2.757696997408931566e+03,2.819125133363816076e+03,2.885872580399328854e+03,2.950656912056088913e+03,3.006724584666971168e+03,3.055858862978204343e+03
2.793610730071635317e+03,2.981931108062794920e+03,3.138841639993903300e+03,3.225924401768023017e+03,3.229336991312300142e+03,3.159433013260173539e+03,3.040708733424782622e+03,2.899771376314585723e+03,2.757064471879286884e+03,2.628879743941472498e+03,2.528416399939033909e+03,2.464185337600975345e+03,2.434154854442920623e+03,2.429990855052583356e+03,2.447625361987501947e+03,2.491921963115378730e+03,2.565531169029111425e+03,2.654514555707971340e+03,2.727614692882182680e+03,2.752798353909465277e+03,2.714157902758725413e+03,2.617416552354824034e+03,2.482786160646242934e+03,2.332706904435299293e+03,2.186957780826093767e+03,2.056989788142052021e+03,1.951339734796524681e+03,1.869882639841487389e+03,1.812296905959457263e+03,1.773023929279073172e+03,1.750582228318853595e+03,1.741719250114311762e+03,1.744418533760097489e+03,1.753193110806279265e+03,1.761537875323883327e+03,1.764755372656607278e+03,1.761493674744703640e+03,1.754159426916628490e+03,1.745012955342173427e+03,1.735581466239902511e+03,1.725913732662703751e+03,1.715970126505105782e+03,1.705976223136716726e+03,1.696264288980338279e+03,1.687207742722145895e+03,1.678765432098765359e+03,1.670887059899405585e+03,1.663440024386526375e+03,1.656631611034903472e+03,1.650576131687242651e+03,1.645183661027282369e+03,1.639853680841335290e+03,1.634060356652949167e+03,1.627611644566376981e+03,1.620775796372504146e+03,1.613875933546715487e+03,1.607105624142661100e+03,1.600661484529797235e+03,1.594747751867093484e+03,1.589684499314128971e+03,1.585675964029873512e+03,1.582623837829599097e+03,1.579944114210232328e+03,1.576954986536605247e+03,1.573492607834171622e+03,1.569756896814509901e+03,1.566021185794848179e+03,1.562723670172229731e+03,1.560273078290910917e+03,1.559067723416145782e+03,1.558669410150891736e+03,1.558669410150891736e+03,1.558669410150891736e+03,1.558669410150891736e+03,1.558669410150891736e+03,1.558669410150891736e+03,1.558669410150891736e+03,1.558669410150891736e+03,1.560253899303967955e+03,1.565750182052194077e+03,1.578102423411065502e+03,1.595726134227506009e+03,1.616294010059442144e+03,1.636861885891378279e+03,1.657746659553929703e+03,1.682289115819065501e+03,1.717059899405578335e+03,1.762374638012498053e+03,1.813962810547172694e+03,1.864924554183813598e+03,1.914087791495198871e+03,1.962975156226184936e+03,2.011243712848651057e+03,2.059582380734644175e+03,2.106009754610578057e+03,2.150466392318244289e+03,2.192370065538789731e+03,2.237096479195244683e+03,2.291786313062033514e+03,2.360970888584057320e+03,2.434555707971346237e+03,2.490425240054869846e+03,2.507515622618503130e+03,2.485075445816186402e+03,2.444397195549458957e+03,2.415060204237159269e+03,2.414971803078798530e+03,2.444584666971498791e+03,2.492432556012803616e+03,2.546023472031703022e+03,2.597443987197073511e+03,2.644840725499161181e+03,2.692133821063862342e+03,2.744746227709190862e+03,2.806483767718335912e+03,2.873563481176649475e+03,2.940021338210638532e+03,3.000181374790428436e+03,3.055628715134887898e+03
2.768230452674897151e+03,2.962528577960676557e+03,3.141097393689986347e+03,3.259154092363969085e+03,3.291586648376771791e+03,3.240542600213381775e+03,3.126506630086876612e+03,2.979775948788294954e+03,2.826877000457247505e+03,2.688631306203322765e+03,2.577314433775339239e+03,2.496410608139003671e+03,2.441775643956713793e+03,2.409556470050296866e+03,2.405563176345069223e+03,2.440257582685566376e+03,2.515214144185337318e+03,2.611504343850022906e+03,2.695656149977137829e+03,2.734421582075903189e+03,2.709666209419295683e+03,2.623840877914952216e+03,2.496299344612101777e+03,2.350285017527816308e+03,2.205419905502209986e+03,2.072211553116902905e+03,1.959663161103490438e+03,1.870737692424935403e+03,1.807721383935375798e+03,1.766014327084285924e+03,1.742967535436670914e+03,1.734278311233043723e+03,1.736665142508763893e+03,1.744331656759640282e+03,1.750858100899253486e+03,1.752839506172839492e+03,1.749768327998780705e+03,1.744328608443834810e+03,1.737847889041304825e+03,1.730972412741959943e+03,1.723109282121627757e+03,1.714173144337753229e+03,1.704485596707819013e+03,1.694618198445358757e+03,1.685218716659045867e+03,1.676502057613168745e+03,1.668483462886754978e+03,1.660990702636793230e+03,1.654156378600823018e+03,1.648134430727023528e+03,1.642778539856729367e+03,1.637445511354976361e+03,1.631505868007925528e+03,1.624865112025606095e+03,1.617918000304831594e+03,1.611156835848193623e+03,1.604772138393537489e+03,1.598849260783417094e+03,1.593398872123151932e+03,1.588574912360920734e+03,1.584557232129248405e+03,1.581133211400700930e+03,1.577782858304120509e+03,1.574146471574455290e+03,1.570256820606614838e+03,1.566367169638774612e+03,1.562477518670934387e+03,1.559475689681451058e+03,1.557770411014581214e+03,1.557361682670324626e+03,1.557361682670324626e+03,1.557361682670324626e+03,1.557361682670324626e+03,1.557361682670324626e+03,1.557361682670324626e+03,1.557361682670324626e+03,1.557361682670324626e+03,1.557361682670324626e+03,1.560241960067062791e+03,1.568329819302613032e+03,1.581625260376975120e+03,1.597248005893410664e+03,1.612870751409845980e+03,1.628493496926281750e+03,1.646481354468322934e+03,1.671447780656742907e+03,1.708184219885180028e+03,1.755808565767413711e+03,1.808776101204084853e+03,1.861298582533150466e+03,1.910268251790885870e+03,1.956727632982777322e+03,2.000938881268099522e+03,2.044234110653863581e+03,2.084968754762993740e+03,2.123909465020576135e+03,2.163313519280597120e+03,2.210414570949550580e+03,2.271536351165980705e+03,2.346785550983081976e+03,2.422144490169181154e+03,2.474516079865873962e+03,2.485851242188690776e+03,2.460225575369608123e+03,2.422586495960981210e+03,2.401879286694102120e+03,2.411775643956714248e+03,2.447366255144032948e+03,2.495415333028501664e+03,2.544618198445359212e+03,2.591143118427069112e+03,2.636040237768632778e+03,2.684523700655388438e+03,2.739910074683737093e+03,2.803217497332723724e+03,2.869603718945282708e+03,2.934813290656912159e+03,2.995813138241121578e+03,3.054793476604176249e+03
2.752068282274043668e+03,2.946262764822435201e+03,3.136688004877305048e+03,3.274266117969821153e+03,3.327608596250571736e+03,3.295046486816033848e+03,3.193702179545800846e+03,3.053796677335772074e+03,2.902966011278768292e+03,2.764546563023929139e+03,2.650646242950769647e+03,2.561388507849413145e+03,2.488925468678555262e+03,2.430381039475689704e+03,2.398606919676878533e+03,2.411688766956257041e+03,2.475735406188081015e+03,2.571294010059441916e+03,2.663299801859473064e+03,2.714624295076969702e+03,2.703365340649291284e+03,2.628178631306202988e+03,2.508070416095107248e+03,2.367015698826397966e+03,2.224442920286541266e+03,2.089637250419144038e+03,1.971382411217801973e+03,1.875462581923487278e+03,1.806870903825636105e+03,1.762575826855662172e+03,1.738820301783264767e+03,1.730051821368693481e+03,1.731705532693186797e+03,1.737786922725194245e+03,1.742248132906569253e+03,1.742557536960829339e+03,1.738864502362444682e+03,1.733863740283493371e+03,1.728483462886754978e+03,1.722898948331046995e+03,1.716346593507087391e+03,1.708619112940100422e+03,1.699900929736320450e+03,1.690652339582380819e+03,1.681591220850480113e+03,1.673139765279682933e+03,1.665322359396433285e+03,1.657918000304831594e+03,1.650967840268251621e+03,1.644793476604176021e+03,1.639321749733272554e+03,1.633973479652491960e+03,1.628033836305441127e+03,1.621476909007772974e+03,1.614746227709190407e+03,1.608413351623228209e+03,1.602583447645176193e+03,1.597236701722298449e+03,1.592228318853833343e+03,1.587602499618960564e+03,1.583504039018442427e+03,1.579622770919067079e+03,1.575809327846364795e+03,1.571778692272519493e+03,1.567748056698673736e+03,1.563717421124828434e+03,1.559686785550983359e+03,1.556999695168419294e+03,1.555656149977137375e+03,1.555656149977137375e+03,1.555656149977137375e+03,1.555656149977137375e+03,1.555656149977137375e+03,1.555656149977137375e+03,1.555656149977137375e+03,1.555656149977137375e+03,1.555656149977137375e+03,1.555656149977137375e+03,1.559799192196311196e+03,1.568085276634659067e+03,1.580514403292180759e+03,1.592943529949702679e+03,1.605372656607224599e+03,1.617801783264746518e+03,1.634373952141441805e+03,1.660528120713305952e+03,1.699411675049535006e+03,1.749175430574607617e+03,1.803500990702636955e+03,1.857552202408169705e+03,1.906267337296143978e+03,1.949910074683737321e+03,1.989332418838591821e+03,2.027069044352995434e+03,2.063197683279987814e+03,2.100254534369761132e+03,2.142554488645023866e+03,2.196591982929431197e+03,2.265345221764974212e+03,2.343981100442005754e+03,2.416460905349793848e+03,2.461489102270994863e+03,2.466256668190824712e+03,2.439606767261088862e+03,2.408376771833562088e+03,2.397794543514708494e+03,2.415964029873494837e+03,2.453179393385154526e+03,2.497251943301326264e+03,2.540117360158512383e+03,2.582909617436366261e+03,2.628539856729157691e+03,2.681985977747293873e+03,2.742716049382715937e+03,2.807757963725041918e+03,2.871181222374637855e+03,2.931335162322816814e+03,2.989481786313062457e+03,3.049314128943758533e+03
2.750923639689071933e+03,2.940106691053193572e+03,3.130867245846669903e+03,3.272866941015089196e+03,3.335846669714982454e+03,3.319570187471422287e+03,3.238771528730376758e+03,3.118366102728242367e+03,2.980544124371284852e+03,2.846727632982776868e+03,2.729634202103337884e+03,2.630573083371437406e+03,2.541592745008382735e+03,2.459961896052431257e+03,2.401300106691053315e+03,2.389414723365340706e+03,2.437280902301478363e+03,2.528488035360463527e+03,2.627047706142357129e+03,2.690544124371285307e+03,2.692793781435756500e+03,2.629276024996189335e+03,2.519027587258040512e+03,2.386006706294771902e+03,2.248734948940710183e+03,2.114615150129553058e+03,1.991554641060813992e+03,1.887863130620331958e+03,1.811871665904587644e+03,1.763246456332876051e+03,1.737677183356195428e+03,1.727995732357872157e+03,1.728160341411370382e+03,1.732057613168724401e+03,1.734612101813748041e+03,1.733764670019814048e+03,1.729757658893461212e+03,1.724462734339277631e+03,1.718683127572016474e+03,1.712684042066758138e+03,1.706285627190976811e+03,1.699356805365035598e+03,1.691838134430726768e+03,1.683790580704160902e+03,1.675724737082761749e+03,1.668149672306050888e+03,1.661031854900167673e+03,1.654121322969059520e+03,1.647351013565005132e+03,1.641233043743331791e+03,1.635823807346440844e+03,1.630644718792867025e+03,1.624923030025910521e+03,1.618643499466544881e+03,1.612243560432861159e+03,1.606305441243712949e+03,1.600845907636031370e+03,1.595811614083218956e+03,1.591004420057918196e+03,1.586447187928669564e+03,1.582229843011735966e+03,1.578178631306203215e+03,1.574211248285322426e+03,1.570118884316415233e+03,1.566026520347507812e+03,1.561934156378600846e+03,1.557841792409693653e+03,1.555113549763755373e+03,1.553749428440786460e+03,1.553749428440786460e+03,1.553749428440786460e+03,1.553749428440786460e+03,1.553749428440786460e+03,1.553749428440786460e+03,1.553749428440786460e+03,1.553749428440786460e+03,1.553749428440786460e+03,1.553749428440786460e+03,1.557523751460651511e+03,1.565072397500380930e+03,1.576395366559975628e+03,1.587718335619570098e+03,1.599041304679164796e+03,1.610364273738759493e+03,1.627016714931666684e+03,1.652792257277854105e+03,1.691207133058984937e+03,1.739879591525682372e+03,1.794421582075903189e+03,1.849323273891175177e+03,1.898135954884926150e+03,1.940196616369456024e+03,1.976593507087334274e+03,2.011124828532236279e+03,2.046012802926383756e+03,2.085473251028806772e+03,2.134224965706447620e+03,2.196119493979575964e+03,2.270021338210638987e+03,2.347314433775338784e+03,2.412077427221459857e+03,2.446802316720012186e+03,2.445156226185032665e+03,2.420045724737082764e+03,2.397831123304374159e+03,2.397486663618350576e+03,2.421073007163542570e+03,2.456105776558451453e+03,2.493558908702942063e+03,2.529945130315501046e+03,2.570688919372047167e+03,2.619643347050754528e+03,2.679823197683280341e+03,2.746081390032007221e+03,2.811365645480871535e+03,2.869739368998627924e+03,2.923159579332418616e+03,2.977597927145252015e+03,3.038123761621703579e+03
2.759164761469288351e+03,2.937037037037037408e+03,3.116015851242189001e+03,3.248684651729919096e+03,3.312231367169638361e+03,3.310300259106843441e+03,3.254970278920895908e+03,3.161182746532540932e+03,3.041268099375095517e+03,2.910917543057460534e+03,2.784513031550068263e+03,2.669135802469136252e+03,2.562551440329218167e+03,2.463691510440481579e+03,2.387347965249199660e+03,2.358149672306050434e+03,2.393025453436976022e+03,2.479336991312300142e+03,2.581493674744703640e+03,2.654496265813138052e+03,2.669516841944825501e+03,2.620111263526901439e+03,2.524133516232281181e+03,2.404165523548239435e+03,2.276701722298430013e+03,2.146739826245998756e+03,2.020579180003048350e+03,1.908599298887364739e+03,1.823177869227251904e+03,1.768088705989940536e+03,1.739487882944672947e+03,1.728430117360158647e+03,1.726860234720317067e+03,1.728259411675049705e+03,1.728882792257277742e+03,1.727285474775186458e+03,1.723566529492455629e+03,1.718145099832342567e+03,1.711425087639079266e+03,1.703956713915561522e+03,1.696590458771528802e+03,1.689609815576893880e+03,1.682804450541075994e+03,1.675805517451607784e+03,1.668803536046334330e+03,1.662267946959304936e+03,1.656047858558146572e+03,1.649844535893918419e+03,1.643540618808108320e+03,1.637811309251638477e+03,1.632834933699130943e+03,1.628119189147995485e+03,1.622784636488340084e+03,1.616742874561804456e+03,1.610467916476146911e+03,1.604606005182137096e+03,1.599208962048468265e+03,1.594264593811918758e+03,1.589559518366102793e+03,1.585089163237311368e+03,1.580833714372809027e+03,1.576702484377381552e+03,1.572721002895900028e+03,1.568764288980338279e+03,1.564883401920438928e+03,1.561002514860539577e+03,1.557121627800640454e+03,1.554155235482395938e+03,1.552482472184118478e+03,1.552103337905807166e+03,1.552103337905807166e+03,1.552103337905807166e+03,1.552103337905807166e+03,1.552103337905807166e+03,1.552103337905807166e+03,1.552103337905807166e+03,1.552103337905807166e+03,1.552103337905807166e+03,1.554581872682009816e+03,1.561097647716303300e+03,1.571650663008687843e+03,1.583762383782960114e+03,1.595874104557232158e+03,1.607985825331504202e+03,1.623378804044098842e+03,1.646507138139511198e+03,1.681106538637402537e+03,1.727381496723060536e+03,1.780990702636793458e+03,1.836480719402530212e+03,1.886703246456332863e+03,1.929780521262003049e+03,1.966424325560128182e+03,2.001115683584819635e+03,2.037625361987501947e+03,2.080960219478737599e+03,2.135057155921353569e+03,2.201108062795306068e+03,2.274930650815424087e+03,2.345936595031244906e+03,2.399711934156378902e+03,2.423688462124676334e+03,2.418231976832799774e+03,2.398957475994513061e+03,2.388686175887821719e+03,2.398164913885078477e+03,2.423679317177259236e+03,2.452886755067824652e+03,2.481766499009297604e+03,2.512554488645023866e+03,2.553537570492303075e+03,2.608192348727327953e+03,2.675273586343545503e+03,2.745104404816338956e+03,2.807841792409693426e+03,2.859861301630848629e+03,2.907433318091754245e+03,2.960420667581161524e+03,3.023888126809937603e+03
2.766409083981100594e+03,2.927526291723822396e+03,3.087552202408169705e+03,3.204965706447188040e+03,3.265602804450541043e+03,3.274932174973327164e+03,3.241461667428745386e+03,3.169785093735711143e+03,3.063520804755372410e+03,2.932568206066148377e+03,2.793708276177412245e+03,2.660925163846974101e+03,2.540103642737387418e+03,2.432716049382715937e+03,2.351028806584361973e+03,2.316072245084591032e+03,2.343959762231367222e+03,2.424487120865722318e+03,2.524566377076664594e+03,2.601830513641213656e+03,2.627812833409541327e+03,2.595212620027434696e+03,2.518526139308032270e+03,2.417340344459686094e+03,2.304769090077732471e+03,2.182943148910227137e+03,2.056024996189605190e+03,1.936095107453132186e+03,1.840140222527053993e+03,1.777047706142356446e+03,1.744500838286846601e+03,1.732010364273738787e+03,1.729105319311080848e+03,1.728419448254839381e+03,1.727271757354061720e+03,1.725139460448102454e+03,1.722046944063404908e+03,1.717035512879134103e+03,1.709684499314129198e+03,1.700708733424782849e+03,1.691809175430574442e+03,1.683888126809937603e+03,1.676736777930193512e+03,1.669838439262307475e+03,1.663190062490474020e+03,1.657197073616826856e+03,1.651537875323883327e+03,1.645750647767108603e+03,1.639716506630086769e+03,1.634266117969821607e+03,1.629804907788446826e+03,1.625779606767261157e+03,1.621124828532235824e+03,1.615483920134126038e+03,1.609312604785855910e+03,1.603331809175430863e+03,1.597771681146166657e+03,1.592717573540618787e+03,1.588018594726413539e+03,1.583638164913885021e+03,1.579457399786617771e+03,1.575438957475994357e+03,1.571598206574200958e+03,1.567869608291419127e+03,1.564209724127419577e+03,1.560549839963420254e+03,1.556889955799420932e+03,1.553688843164151876e+03,1.551707691916882595e+03,1.550946502057613543e+03,1.550946502057613543e+03,1.550946502057613543e+03,1.550946502057613543e+03,1.550946502057613543e+03,1.550946502057613543e+03,1.550946502057613543e+03,1.550946502057613543e+03,1.550946502057613543e+03,1.552162272011380537e+03,1.557629172382258730e+03,1.567347203170248576e+03,1.580100594421582173e+03,1.592853985672915769e+03,1.605607376924249365e+03,1.619864095920337377e+03,1.640493065081542454e+03,1.671342783112330380e+03,1.714807194025300987e+03,1.766953208352385445e+03,1.822662703856119606e+03,1.874528273129096078e+03,1.919628105471726712e+03,1.958373723517756616e+03,1.995461057765584883e+03,2.035154702027130270e+03,2.081938728852308941e+03,2.138433165675963664e+03,2.203869836915104315e+03,2.272493522328913059e+03,2.333060509068739975e+03,2.373834781283340362e+03,2.388074988568816025e+03,2.382749580856576358e+03,2.374183813443072722e+03,2.378526139308031816e+03,2.396764212772442988e+03,2.420512117055327053e+03,2.440746837372351820e+03,2.460431336686480790e+03,2.487893613778387589e+03,2.532056089010821324e+03,2.593789056546258507e+03,2.665916780978509451e+03,2.735768937661941891e+03,2.793514708123761466e+03,2.840211857948483157e+03,2.885977747294620258e+03,2.942263374485596614e+03,3.011856424325560056e+03
2.773482700807803667e+03,2.917512574302697885e+03,3.058436213991769819e+03,3.161461667428745386e+03,3.218375247675659011e+03,3.233283036122541944e+03,3.211347355586038248e+03,3.150658436213991990e+03,3.050838286846517349e+03,2.918405730833714188e+03,2.771659807956104487e+03,2.628155768937662287e+03,2.499030635573845302e+03,2.387710714830056531e+03,2.305247675659198194e+03,2.268898033836305331e+03,2.291675049535131620e+03,2.363872885230909560e+03,2.456149977137631140e+03,2.532557536960829111e+03,2.567280902301478363e+03,2.552254229538179970e+03,2.496752019509221100e+03,2.416630086877000394e+03,2.321428135954884965e+03,2.210787989635726262e+03,2.086544734034445810e+03,1.961819844535893935e+03,1.857645176040237857e+03,1.787768632830361184e+03,1.751859472641365755e+03,1.738587105624142623e+03,1.735386374028349337e+03,1.733924706599603496e+03,1.731810699588477519e+03,1.729340039628105387e+03,1.726587410455723330e+03,1.721943301326017490e+03,1.714215820759030748e+03,1.704130467916476164e+03,1.693712848651120339e+03,1.684295076969973934e+03,1.675755220240817152e+03,1.667761012040847390e+03,1.660470964791952383e+03,1.654250876390794247e+03,1.648567291571406713e+03,1.642575826855662399e+03,1.636209419295838870e+03,1.630460295686632890e+03,1.626131687242798307e+03,1.622667276329827700e+03,1.618827922572778562e+03,1.613850022862368405e+03,1.608021643042219466e+03,1.602046944063405135e+03,1.596361835086114979e+03,1.591170553269318589e+03,1.586442615454961015e+03,1.582138393537570664e+03,1.578123761621704034e+03,1.574365950312452469e+03,1.570805390438449422e+03,1.567437297837389451e+03,1.564157267692932919e+03,1.560939516333892243e+03,1.557721764974851567e+03,1.554504013615810436e+03,1.552047452116039267e+03,1.550663474402615066e+03,1.550352080475537605e+03,1.550352080475537605e+03,1.550352080475537605e+03,1.550352080475537605e+03,1.550352080475537605e+03,1.550352080475537605e+03,1.550352080475537605e+03,1.550352080475537605e+03,1.550352080475537605e+03,1.553387440938881582e+03,1.561364629375603499e+03,1.574283645785703584e+03,1.589109129705837631e+03,1.603934613625971679e+03,1.618760097546105726e+03,1.637224508459076333e+03,1.664406594523192780e+03,1.704583142813595487e+03,1.755857338820301720e+03,1.812132296905959265e+03,1.865628715134887898e+03,1.912330437433318139e+03,1.952680993750952439e+03,1.991675049535131848e+03,2.033714372809023189e+03,2.082112482853223810e+03,2.137904282883706856e+03,2.198856881572930888e+03,2.258369151044048067e+03,2.305704923030025839e+03,2.332943148910227137e+03,2.340222527053802423e+03,2.340173754000914414e+03,2.347334247828074695e+03,2.368230452674897151e+03,2.393590916018899406e+03,2.412417314433775118e+03,2.421984453589391705e+03,2.433952141441854110e+03,2.461601889955798924e+03,2.511897576588934498e+03,2.580352080475537150e+03,2.653984148757811454e+03,2.719673830208810159e+03,2.771108062795305614e+03,2.815314738606919491e+03,2.864630391708581101e+03,2.928928516994360507e+03,3.006127114769089985e+03
2.790342935528120961e+03,2.925433622923334951e+03,3.054648681603413934e+03,3.147818930041152271e+03,3.198994055784179182e+03,3.210775796372503919e+03,3.187770156988263807e+03,3.127501905197378164e+03,3.029704313366864881e+03,2.899472641365645359e+03,2.753819539704313229e+03,2.608919372046944318e+03,2.476089010821521242e+03,2.359676878524614949e+03,2.271885383325712610e+03,2.228853833257125189e+03,2.241604938271605079e+03,2.300577655845145273e+03,2.380824569425392383e+03,2.453031550068587421e+03,2.493958238073464145e+03,2.493764670019814275e+03,2.456287151348879888e+03,2.394282883706752273e+03,2.314924554183813598e+03,2.216610272824264030e+03,2.099233348574912725e+03,1.975956409083980816e+03,1.869804907788446599e+03,1.797594878829446998e+03,1.760670629477213879e+03,1.747843316567596503e+03,1.745515927450083836e+03,1.744698978814205248e+03,1.742551440329218167e+03,1.739681450998323271e+03,1.736299344612101777e+03,1.731050144795000733e+03,1.722551440329218167e+03,1.711489102270995318e+03,1.699687547629934443e+03,1.688524615150129648e+03,1.678070416095107248e+03,1.668460600518213596e+03,1.660272824264593737e+03,1.653699131229995373e+03,1.647811309251638477e+03,1.641162932479804567e+03,1.633793629019966602e+03,1.626928821825940986e+03,1.621961591220850551e+03,1.618529187623837743e+03,1.615381801554641015e+03,1.611344307270233230e+03,1.606325255296448631e+03,1.600781893004114863e+03,1.595211095869532073e+03,1.589917695473251115e+03,1.585067825026672836e+03,1.580717878372199493e+03,1.576855662246608745e+03,1.573447645176040169e+03,1.570346237870243385e+03,1.567360200850141155e+03,1.564329497535944711e+03,1.561255398059238814e+03,1.558181298582533145e+03,1.555107199105827476e+03,1.552415155210079774e+03,1.550747811139900932e+03,1.550105166895290495e+03,1.550105166895290495e+03,1.550105166895290495e+03,1.550105166895290495e+03,1.550105166895290495e+03,1.550105166895290495e+03,1.550105166895290495e+03,1.550105166895290495e+03,1.550105166895290495e+03,1.551581821876746289e+03,1.558258141543464035e+03,1.570134125895442594e+03,1.585733119951227081e+03,1.601332114007011114e+03,1.616931108062795147e+03,1.634235888838083611e+03,1.659598130366305895e+03,1.697488187776253653e+03,1.748329522938576247e+03,1.804497789971040902e+03,1.857817405883249421e+03,1.903721993598536756e+03,1.943554336229233286e+03,1.983106233805822285e+03,2.026909007773205076e+03,2.076652949245542459e+03,2.130978509373571342e+03,2.185611949397957687e+03,2.233187014174668548e+03,2.265273586343545503e+03,2.279727175735406036e+03,2.284324035970126261e+03,2.294927602499618843e+03,2.321057765584514527e+03,2.357867703094039825e+03,2.387497332723670297e+03,2.399608291418991485e+03,2.399980185947264090e+03,2.408841639993903300e+03,2.441306203322664715e+03,2.499422344154854727e+03,2.571647614692882144e+03,2.641682670324646097e+03,2.699390336838896928e+03,2.744921505868007443e+03,2.790672153635116501e+03,2.848536808413351537e+03,2.923484224965706744e+03,3.006723060509069001e+03
2.820425240054869846e+03,2.958689224203628328e+03,3.085802469135802312e+03,3.172786160646242934e+03,3.214372809023014725e+03,3.215267489711934104e+03,3.183700655387898223e+03,3.120810852004267872e+03,3.027064471879286430e+03,2.905137936290199832e+03,2.767012650510592721e+03,2.624253924706599719e+03,2.486438042981253147e+03,2.359920743789056360e+03,2.259856729157140762e+03,2.202888279225728184e+03,2.199483310470964625e+03,2.241464715744551540e+03,2.308806584362139802e+03,2.376587410455723784e+03,2.421557689376619237e+03,2.430278920896204454e+03,2.402261850327693992e+03,2.349315653101661155e+03,2.279015393994817714e+03,2.190963267794543299e+03,2.084127419600670237e+03,1.970457247370827645e+03,1.871611034903215796e+03,1.804415485444292244e+03,1.770719402530102343e+03,1.760184423106233908e+03,1.759544276787074978e+03,1.759804907788447053e+03,1.757654320987654273e+03,1.753577198597774668e+03,1.748123761621704034e+03,1.740755982319768464e+03,1.730637098003353003e+03,1.718347812833409535e+03,1.705232434080170606e+03,1.692303002591068434e+03,1.679998475842097150e+03,1.669062642889803328e+03,1.660597469897881410e+03,1.654314891022710071e+03,1.648635878677031087e+03,1.641376314586191256e+03,1.632795305593659577e+03,1.624415485444292017e+03,1.618241121780216417e+03,1.614173144337753456e+03,1.611159884163999322e+03,1.607838744093887954e+03,1.603755525072397404e+03,1.599000152415790353e+03,1.593927754915409196e+03,1.588841639993903527e+03,1.584032921810699690e+03,1.579676878524614949e+03,1.575942691662856078e+03,1.572804450541076221e+03,1.570115581974292354e+03,1.567468416061237122e+03,1.564696819590509449e+03,1.561762942640857545e+03,1.558829065691205869e+03,1.555895188741553511e+03,1.552961311791901608e+03,1.551005393825466854e+03,1.550027434842249704e+03,1.550027434842249704e+03,1.550027434842249704e+03,1.550027434842249704e+03,1.550027434842249704e+03,1.550027434842249704e+03,1.550027434842249704e+03,1.550027434842249704e+03,1.550027434842249704e+03,1.550027434842249704e+03,1.555433368897017544e+03,1.566245237006553907e+03,1.582463039170858110e+03,1.598680841335162313e+03,1.614898643499466516e+03,1.631116445663770719e+03,1.654760199156632552e+03,1.690105166895290495e+03,1.739364426154549619e+03,1.793597012650510578e+03,1.845057155921353569e+03,1.889277549154092412e+03,1.928616064624294950e+03,1.969143423258649818e+03,2.015121170553269621e+03,2.066265813138241356e+03,2.118236549306508550e+03,2.164421582075903189e+03,2.197465325407712044e+03,2.213851547020271482e+03,2.218960524310318306e+03,2.227286998933089308e+03,2.253536046334399998e+03,2.298908702941624597e+03,2.347710714830056531e+03,2.378059746989787982e+03,2.384160951074531567e+03,2.380534979423868663e+03,2.392682517908855516e+03,2.433342478280750584e+03,2.497863130620332868e+03,2.568590153939947868e+03,2.629696692577350859e+03,2.676864807194025161e+03,2.717831123304374614e+03,2.768263984148758027e+03,2.836902911141594359e+03,2.921577503429355147e+03,3.006652949245542004e+03
2.854177716811461778e+03,3.002885230909922029e+03,3.134912360920591254e+03,3.218774577046182003e+03,3.249187623837829960e+03,3.235997561347355713e+03,3.193568053650358252e+03,3.127995732357872384e+03,3.039768327998780478e+03,2.928023167200121861e+03,2.798007925621094273e+03,2.656645328456028437e+03,2.513203779911598758e+03,2.377785398567291850e+03,2.267283950617284063e+03,2.196332876085962653e+03,2.173947568968145333e+03,2.195718640451150350e+03,2.248928516994360507e+03,2.312284712696235147e+03,2.359996951684194300e+03,2.372927907331199549e+03,2.346627038561195150e+03,2.293293705227861665e+03,2.223412589544276670e+03,2.140737692424935176e+03,2.045259868922420537e+03,1.947209266880048517e+03,1.863755525072397404e+03,1.808628257887517066e+03,1.782530102118579634e+03,1.776066148452979633e+03,1.777155921353452186e+03,1.777466849565614893e+03,1.773882030178326431e+03,1.766982167352537545e+03,1.758058222831885359e+03,1.747437890565462567e+03,1.735023624447492466e+03,1.721126352690138674e+03,1.706649900929736077e+03,1.692240512117055232e+03,1.678870598994056081e+03,1.667773205304069506e+03,1.660254534369760677e+03,1.655191281816796163e+03,1.650193568053650324e+03,1.642514860539551819e+03,1.632821216278006432e+03,1.623030025910684344e+03,1.615595183661027477e+03,1.610560890108215290e+03,1.607131534827008181e+03,1.604016156073769253e+03,1.600620332266422793e+03,1.596723060509068773e+03,1.592418838591678195e+03,1.587879896357262851e+03,1.583395823807346460e+03,1.579201341258954471e+03,1.575596707818929872e+03,1.572456942539246938e+03,1.569696692577351087e+03,1.566807905298988999e+03,1.563775339125133314e+03,1.560518213686937997e+03,1.557261088248742681e+03,1.554423106233805811e+03,1.552004267642127843e+03,1.550671137529848238e+03,1.550004572473708322e+03,1.550004572473708322e+03,1.550004572473708322e+03,1.550004572473708322e+03,1.550004572473708322e+03,1.550004572473708322e+03,1.550004572473708322e+03,1.550004572473708322e+03,1.551060369354265049e+03,1.553171963115378958e+03,1.559838820301783016e+03,1.570005144032921635e+03,1.583670934308794358e+03,1.597336724584666626e+03,1.611213674236650832e+03,1.625555174516079660e+03,1.647429507696997462e+03,1.680338363054412639e+03,1.726166742874561578e+03,1.776547782350251509e+03,1.825340649291266573e+03,1.868844688309708999e+03,1.909807956104252526e+03,1.953188538332571170e+03,2.002059137326626796e+03,2.053926230757506346e+03,2.101754305746075261e+03,2.137142203932327902e+03,2.154525224813291061e+03,2.157465325407711589e+03,2.159306508154245421e+03,2.177861606462429336e+03,2.221679622008839942e+03,2.281842706904435545e+03,2.335656149977137829e+03,2.363689986282578957e+03,2.367358634354519381e+03,2.367201646090535178e+03,2.387933241883859864e+03,2.436736777930193966e+03,2.502866941015088742e+03,2.566486816034141157e+03,2.615480871818320338e+03,2.652174973327236330e+03,2.690266727632982565e+03,2.745794848346288745e+03,2.822798353909465277e+03,2.912194787379972695e+03,2.993886602652034981e+03
2.874205151653711710e+03,3.029661636945587816e+03,3.167818930041152271e+03,3.252214601432708605e+03,3.275625666819082198e+03,3.251211705532693031e+03,3.198352385307117856e+03,3.127733577198598141e+03,3.041333638164913737e+03,2.936137783874409251e+03,2.812147538484986853e+03,2.673133668648071762e+03,2.530140222527053538e+03,2.396854138088706350e+03,2.288055174516079660e+03,2.211207133058984709e+03,2.171414418533759999e+03,2.170068587105623919e+03,2.205060204237158814e+03,2.260841335162322594e+03,2.309321749733272554e+03,2.324737082761774218e+03,2.297485139460447954e+03,2.238933089468069284e+03,2.163170248437737882e+03,2.080283493369913231e+03,1.993845450388660083e+03,1.913074226489864259e+03,1.849230300259107025e+03,1.810676726108824823e+03,1.795119646395366544e+03,1.793424782807498786e+03,1.795067825026672836e+03,1.793276939490931227e+03,1.786267337296143978e+03,1.775272062185642426e+03,1.762450845907635994e+03,1.748533760097546292e+03,1.733897271757354019e+03,1.718545953360768181e+03,1.703249504648681750e+03,1.688440786465477913e+03,1.675435147081237574e+03,1.665476299344612016e+03,1.659640298734949056e+03,1.655945739978661777e+03,1.651431184270690665e+03,1.643217497332723724e+03,1.632565157750342905e+03,1.621827465325407502e+03,1.613629019966468604e+03,1.607867703094040735e+03,1.603834781283341044e+03,1.600449626581313851e+03,1.597274805669867646e+03,1.594007011126352836e+03,1.590524310318549169e+03,1.586794695930498392e+03,1.582959914647157575e+03,1.579186099679926883e+03,1.575620078240105613e+03,1.572170400853528463e+03,1.568786770309404119e+03,1.565276634659350520e+03,1.561679622008839942e+03,1.557963725041914131e+03,1.554732002235431537e+03,1.552403597012650607e+03,1.550978509373571114e+03,1.550307879896357008e+03,1.549972565157750523e+03,1.549972565157750523e+03,1.549972565157750523e+03,1.549972565157750523e+03,1.549972565157750523e+03,1.549972565157750523e+03,1.549972565157750523e+03,1.550580958187268152e+03,1.552853541126860819e+03,1.556790313976528068e+03,1.563465808057714867e+03,1.571824226489864259e+03,1.581865569272976472e+03,1.592028590661992666e+03,1.603339874510999380e+03,1.616732586495960959e+03,1.637548137987095515e+03,1.667803688462124683e+03,1.708830970888584261e+03,1.754843773814967108e+03,1.802071330589849140e+03,1.847530864197531173e+03,1.892920286541685755e+03,1.940451150739216700e+03,1.991173601585124288e+03,2.040823045267489761e+03,2.081225422953818452e+03,2.104150281969212301e+03,2.108039932937052527e+03,2.103853071178174105e+03,2.110352080475537150e+03,2.143340954122847052e+03,2.201697911903673230e+03,2.268041457094955149e+03,2.319141899100746741e+03,2.343811918914800117e+03,2.350486206370980653e+03,2.360431336686480790e+03,2.391415942691662622e+03,2.444319463496418393e+03,2.505704923030026293e+03,2.558651120256058675e+03,2.596175887821977994e+03,2.625302545343697602e+03,2.661972260326169817e+03,2.719998475842096923e+03,2.799172382258801463e+03,2.886255144032921635e+03,2.960580704160950972e+03
2.874122847126962370e+03,3.023903368388965191e+03,3.163359244017679885e+03,3.251024234110654106e+03,3.274985520499923950e+03,3.245997561347355713e+03,3.183929279073312046e+03,3.102775491540923213e+03,3.009538180155463579e+03,2.904173144337753456e+03,2.786139308032312329e+03,2.657811309251638704e+03,2.530541076055479152e+03,2.417047706142356674e+03,2.324606005182136869e+03,2.250027434842249477e+03,2.193555860387136363e+03,2.163758573388202876e+03,2.171585124218868714e+03,2.211226947111720619e+03,2.256140832190214951e+03,2.275294924554184036e+03,2.251731443377534106e+03,2.191707056851089874e+03,2.110588324950464539e+03,2.024878829446730833e+03,1.944040542600213485e+03,1.877969821673525303e+03,1.832717573540618787e+03,1.810600518213686883e+03,1.805174516079865953e+03,1.806915104404816475e+03,1.806925773510135741e+03,1.800917543057460762e+03,1.789190672153635205e+03,1.774086267337296022e+03,1.758352385307117856e+03,1.742636793171772752e+03,1.727259564090839831e+03,1.711876238378296193e+03,1.697241274196006998e+03,1.683693034598384429e+03,1.672513336381649196e+03,1.664491693339429958e+03,1.660188995579942230e+03,1.657093430879438984e+03,1.652176497485139407e+03,1.642905044962658167e+03,1.631207133058984937e+03,1.619865874104557179e+03,1.611466239902453935e+03,1.605554031397652579e+03,1.601234567901234868e+03,1.597556774881877800e+03,1.594337753391251454e+03,1.591377838744093879e+03,1.588483462886754978e+03,1.585476299344612244e+03,1.582335009907026233e+03,1.579093126047858277e+03,1.575630747345424879e+03,1.571860996799268150e+03,1.567794543514708039e+03,1.563625971650663132e+03,1.559457399786617998e+03,1.555288827922572636e+03,1.552090636589950918e+03,1.550281969212010608e+03,1.549862825788751707e+03,1.549862825788751707e+03,1.549862825788751707e+03,1.549862825788751707e+03,1.549862825788751707e+03,1.549862825788751707e+03,1.549862825788751707e+03,1.549862825788751707e+03,1.549862825788751707e+03,1.550967078189300310e+03,1.554231379870954697e+03,1.559655730833714415e+03,1.566135878677030860e+03,1.572616026520347532e+03,1.579096174363663749e+03,1.586185223289132637e+03,1.595370052837473850e+03,1.608167581161408179e+03,1.627819692120103582e+03,1.655459533607681806e+03,1.692114007011126205e+03,1.734872732815119662e+03,1.781828989483310579e+03,1.830285017527816080e+03,1.879948178631306064e+03,1.930222527053802878e+03,1.980231672001219295e+03,2.024993141289437744e+03,2.056625514403292527e+03,2.069009297363207224e+03,2.065547934766042090e+03,2.062757201646090834e+03,2.080073159579332241e+03,2.126549306508154586e+03,2.191271147690900762e+03,2.253578722755677518e+03,2.296419753086420315e+03,2.319272976680384090e+03,2.334202103337905555e+03,2.357407407407407391e+03,2.396384697454656816e+03,2.447556774881877573e+03,2.499205913732662793e+03,2.541079103795153060e+03,2.570827617741198083e+03,2.596776406035665786e+03,2.633069654016156619e+03,2.689814052735863243e+03,2.764522176497485361e+03,2.843531473860692131e+03,2.909195244627343527e+03
2.855709495503734161e+03,2.985297972869989280e+03,3.117386069196768858e+03,3.208338667885992891e+03,3.239745465630238868e+03,3.214631915866483723e+03,3.148204541990549842e+03,3.055909160188995884e+03,2.951902149062642820e+03,2.843639689071787870e+03,2.734633440024386346e+03,2.627296143880505952e+03,2.529983234263069335e+03,2.448742569730224204e+03,2.379949702789208914e+03,2.310698064319463811e+03,2.238035360463344205e+03,2.177123914037494160e+03,2.150193568053650324e+03,2.162732815119646602e+03,2.194679164761469110e+03,2.214252400548696642e+03,2.197535436671239495e+03,2.142205456485291506e+03,2.061190367322054499e+03,1.974987044657826800e+03,1.899129705837524853e+03,1.845048010973936925e+03,1.815157750342935515e+03,1.806319158664837687e+03,1.808131382411217828e+03,1.810595945739978561e+03,1.806799268404206487e+03,1.795665294924554019e+03,1.779814052735863470e+03,1.762520957171162991e+03,1.746425849718030804e+03,1.731688766956256586e+03,1.718184727937814387e+03,1.705124218869074866e+03,1.693022405121170777e+03,1.681987501905197405e+03,1.672982777015698503e+03,1.666270385611949223e+03,1.662106386221612411e+03,1.658078036884621270e+03,1.651681146166743019e+03,1.640967840268252075e+03,1.628294467306812976e+03,1.616620941929583751e+03,1.608375247675659239e+03,1.602795305593659577e+03,1.598693796677335740e+03,1.595069349184575685e+03,1.591865569272976700e+03,1.589036732205456474e+03,1.586471574455113569e+03,1.583964334705075544e+03,1.581376314586191256e+03,1.578609967992684005e+03,1.575249707869735175e+03,1.571354976375552269e+03,1.566998933089467982e+03,1.562642889803383468e+03,1.558286846517299182e+03,1.553930803231214668e+03,1.551026774373824992e+03,1.549574759945130381e+03,1.549574759945130381e+03,1.549574759945130381e+03,1.549574759945130381e+03,1.549574759945130381e+03,1.549574759945130381e+03,1.549574759945130381e+03,1.549574759945130381e+03,1.549574759945130381e+03,1.549574759945130381e+03,1.551134989584920959e+03,1.554255448864502569e+03,1.558936137783874301e+03,1.563616826703246488e+03,1.568297515622618221e+03,1.572978204541990635e+03,1.578778133414621607e+03,1.587393689986282652e+03,1.600641670477061325e+03,1.619859777472946007e+03,1.645861911294010042e+03,1.679568663313519210e+03,1.720358177107148322e+03,1.766977594878829223e+03,1.816707818930041185e+03,1.867570492303002538e+03,1.917617741197988380e+03,1.964767565919829622e+03,2.004054260021338450e+03,2.028419448254839381e+03,2.035133363816491510e+03,2.032097241274195994e+03,2.038262459990855405e+03,2.068550525834476502e+03,2.123118427069044628e+03,2.184433775339125077e+03,2.235162322816643609e+03,2.268419448254839153e+03,2.292652034750799885e+03,2.318742569730224204e+03,2.354191434232586744e+03,2.396954732510288068e+03,2.441896052431032331e+03,2.482158207590306574e+03,2.514887974394147022e+03,2.540868770004572525e+03,2.566969974089315656e+03,2.603330285017527785e+03,2.656692577351013369e+03,2.724500838286846374e+03,2.795189757658893541e+03,2.855006858710562028e+03
2.829876543209876672e+03,2.929693644261545614e+03,3.045660722450846151e+03,3.136319158664837232e+03,3.177902758725803778e+03,3.164881877762536533e+03,3.104499314128943297e+03,3.010655387898185836e+03,2.901915866483768241e+03,2.793882030178326659e+03,2.696422801402225105e+03,2.613885078494131903e+03,2.549265355890870069e+03,2.499120560890108209e+03,2.449583904892546798e+03,2.383086419753086375e+03,2.296518823350098955e+03,2.208891937204694386e+03,2.147613168724279603e+03,2.126515775034293711e+03,2.134659350708733200e+03,2.145337600975461100e+03,2.131905197378448520e+03,2.083935375704922990e+03,2.009041304679164568e+03,1.927789971040999944e+03,1.859242493522328914e+03,1.815669867398262568e+03,1.797178783721993796e+03,1.796759640298734894e+03,1.801676573693034697e+03,1.802252705380277348e+03,1.793997866178936192e+03,1.779047401310775513e+03,1.761812223746380141e+03,1.745797896662094217e+03,1.732741960067062791e+03,1.722013412589544259e+03,1.712735863435451847e+03,1.703500990702636955e+03,1.694320987654321243e+03,1.685163846974546459e+03,1.676919676878524797e+03,1.669743941472336473e+03,1.663962810547172694e+03,1.657729004724889364e+03,1.649372046944063413e+03,1.637486663618351031e+03,1.624371284865111875e+03,1.612699283645785727e+03,1.604674592287761016e+03,1.599501600365797685e+03,1.595898491083676163e+03,1.592699283645785727e+03,1.589746989788142173e+03,1.587032464563328858e+03,1.584599908550525697e+03,1.582316720012193173e+03,1.580024386526444005e+03,1.577562871513488744e+03,1.574408118681095402e+03,1.570631763450693597e+03,1.566311537875323893e+03,1.561991312299954188e+03,1.557671086724584711e+03,1.553350861149215234e+03,1.550470710765634976e+03,1.549030635573845530e+03,1.549030635573845530e+03,1.549030635573845530e+03,1.549030635573845530e+03,1.549030635573845530e+03,1.549030635573845530e+03,1.549030635573845530e+03,1.549030635573845530e+03,1.549030635573845530e+03,1.549030635573845530e+03,1.550413808870599041e+03,1.553180155464106065e+03,1.557329675354366600e+03,1.561479195244627363e+03,1.565628715134888125e+03,1.569778235025148433e+03,1.575445054107605529e+03,1.583907940862673286e+03,1.596881572930955599e+03,1.615099832342630862e+03,1.639833866788599153e+03,1.671935680536503469e+03,1.711159884163999550e+03,1.755925925925926094e+03,1.803782959914647108e+03,1.852309099222679833e+03,1.899963420210334334e+03,1.944054260021338450e+03,1.979743941472336701e+03,2.000623380582228265e+03,2.007503429355281241e+03,2.011074531321444965e+03,2.029375095259868658e+03,2.069614388050601974e+03,2.124282883706751818e+03,2.174305746075293428e+03,2.210774272214601297e+03,2.237096479195244683e+03,2.266314586191129365e+03,2.303956713915561522e+03,2.348381344307270410e+03,2.391383935375704823e+03,2.428777625361987248e+03,2.459106843468983243e+03,2.485014479500076504e+03,2.508940710257582850e+03,2.535698826398414894e+03,2.571984453589391705e+03,2.622824264593812131e+03,2.686607224508459694e+03,2.753795153177869452e+03,2.812761774119799156e+03
2.803728090230148155e+03,2.871204084743179465e+03,2.966544734034446265e+03,3.053455265965554190e+03,3.105011431184270805e+03,3.110054869684498499e+03,3.068155768937661833e+03,2.989190672153634750e+03,2.890077732053041018e+03,2.789759183051363834e+03,2.702842554488644510e+03,2.637091906721536361e+03,2.592060661484529192e+03,2.557786922725194472e+03,2.515386374028349110e+03,2.448326474622771002e+03,2.355154702027130043e+03,2.254156378600822791e+03,2.169999999999999545e+03,2.118474317939338562e+03,2.096361835086115207e+03,2.086070720926687954e+03,2.064659350708733200e+03,2.018881268099375120e+03,1.951473860691967730e+03,1.879748513946045023e+03,1.821860996799268605e+03,1.788559670781892919e+03,1.778148148148148039e+03,1.781736015851242200e+03,1.786735253772290662e+03,1.784974851394604457e+03,1.774564852918762199e+03,1.759724127419600563e+03,1.745404663923182397e+03,1.734270690443529929e+03,1.726684956561499803e+03,1.721167504953513117e+03,1.716145404663923273e+03,1.709705837524767503e+03,1.701527206218564288e+03,1.691870141746684794e+03,1.682033226642280169e+03,1.672467611644566432e+03,1.663686937966773485e+03,1.654566377076665049e+03,1.644356043286084059e+03,1.632123151958542849e+03,1.619588477366255120e+03,1.608568815729309563e+03,1.600873342478280620e+03,1.595959457399786515e+03,1.592830361225423076e+03,1.590217954580094556e+03,1.587735101356500536e+03,1.585247675659198194e+03,1.582923334857491227e+03,1.580716354214296416e+03,1.578518518518518704e+03,1.576186556927297488e+03,1.573146369963928237e+03,1.569466544734034414e+03,1.565188233500990918e+03,1.560909922267946968e+03,1.556631611034903244e+03,1.552353299801859521e+03,1.549501092313163554e+03,1.548074988568815570e+03,1.548074988568815570e+03,1.548074988568815570e+03,1.548074988568815570e+03,1.548074988568815570e+03,1.548074988568815570e+03,1.548074988568815570e+03,1.548074988568815570e+03,1.548074988568815570e+03,1.548074988568815570e+03,1.549384748259919661e+03,1.552004267642127843e+03,1.555933546715439661e+03,1.559862825788751707e+03,1.563792104862063752e+03,1.567721383935375798e+03,1.573180409490423017e+03,1.581353452217649647e+03,1.593964334705075316e+03,1.611684194482548264e+03,1.635942691662856078e+03,1.667209266880048517e+03,1.705017527815881522e+03,1.747162017985063358e+03,1.791754305746075261e+03,1.836768785246151538e+03,1.881617131534827195e+03,1.923014784331656983e+03,1.956230757506477858e+03,1.975997561347355486e+03,1.986582837982015008e+03,1.999609815576893880e+03,2.029099222679469676e+03,2.073766194177716898e+03,2.121614083219021268e+03,2.157098003353147305e+03,2.181672001219326376e+03,2.205983843926231202e+03,2.242668800487730550e+03,2.289800335314738732e+03,2.338901082152110575e+03,2.379654016156073794e+03,2.410365797896661661e+03,2.433647309861301437e+03,2.454868160341411567e+03,2.477084285932022794e+03,2.503927754915408968e+03,2.540617283950617548e+03,2.592027130010668770e+03,2.657117817405883216e+03,2.726716963877457601e+03,2.788867550678250609e+03
2.784814814814814781e+03,2.824860539551897546e+03,2.901982929431489083e+03,2.984845297972869957e+03,3.045133363816491055e+03,3.069711934156378902e+03,3.053351623228166773e+03,3.001135497637555545e+03,2.923423258649595937e+03,2.836346593507087164e+03,2.755493065081542227e+03,2.692124676116445698e+03,2.646308489559518421e+03,2.607596402987349393e+03,2.558718183203779972e+03,2.487975918305136474e+03,2.395739978661789337e+03,2.295782655083066857e+03,2.204779759183051283e+03,2.134717268709038308e+03,2.086052431031855122e+03,2.050109739368998817e+03,2.011835086114921296e+03,1.961143118427069112e+03,1.898730376467002088e+03,1.837369303459838420e+03,1.790795610425240056e+03,1.766242950769699519e+03,1.760487730528882821e+03,1.764627343392775629e+03,1.768280749885688238e+03,1.765857338820301720e+03,1.757536960829141663e+03,1.747741197988111480e+03,1.740047248894985614e+03,1.735435147081237574e+03,1.733020880963267473e+03,1.731051668952903583e+03,1.727690900777320621e+03,1.720975461057765642e+03,1.710725499161713060e+03,1.698021643042219239e+03,1.684926078341716220e+03,1.672261850327693992e+03,1.660490778844688066e+03,1.648937661941777151e+03,1.637562871513488744e+03,1.625826855662246771e+03,1.614680688919371960e+03,1.604840725499161863e+03,1.597593354671543921e+03,1.592748056698673963e+03,1.589855204999238140e+03,1.587716811461667476e+03,1.585743026977595036e+03,1.583565005334552779e+03,1.581361073007163668e+03,1.579146471574455063e+03,1.576922725194330269e+03,1.574627343392775401e+03,1.571649900929736077e+03,1.568111271994445360e+03,1.564002311639485924e+03,1.559973073210384428e+03,1.555943834781283158e+03,1.551914596352181889e+03,1.548829827770156953e+03,1.547088138664498956e+03,1.546689529035208125e+03,1.546689529035208125e+03,1.546689529035208125e+03,1.546689529035208125e+03,1.546689529035208125e+03,1.546689529035208125e+03,1.546689529035208125e+03,1.546689529035208125e+03,1.546689529035208125e+03,1.547543311487070014e+03,1.549811258446375177e+03,1.553493369913122706e+03,1.557735863435451847e+03,1.561978356957780989e+03,1.566220850480109675e+03,1.571482751613067194e+03,1.579154600416603216e+03,1.590970888584057320e+03,1.608073464410913175e+03,1.631681146166743019e+03,1.661987501905197405e+03,1.698449931412894330e+03,1.738768480414571059e+03,1.781659807956104260e+03,1.825151653711324798e+03,1.868442310623380763e+03,1.907189452827313062e+03,1.937358634354519154e+03,1.956278006401463244e+03,1.971496723060509112e+03,1.993627495808565754e+03,2.030356652949245472e+03,2.073240359701265334e+03,2.109724127419600791e+03,2.131720774272214840e+03,2.149983234263069335e+03,2.177922572778539688e+03,2.223313519280597575e+03,2.276662094192958193e+03,2.325968602347203159e+03,2.362318244170096023e+03,2.387386069196768858e+03,2.406210943453741493e+03,2.424730986130163274e+03,2.446133211400700930e+03,2.474064929126658171e+03,2.513796677335771619e+03,2.569746989788142400e+03,2.639522938576436445e+03,2.712399024538941831e+03,2.775895442767870918e+03
2.774578570339886937e+03,2.795586038713610833e+03,2.860769699740892975e+03,2.941713153482700818e+03,3.009207437890565416e+03,3.049937509525987025e+03,3.057267184880353852e+03,3.033016308489559378e+03,2.980695016003657656e+03,2.909652491998170717e+03,2.832231367169638816e+03,2.760551745160798873e+03,2.698181679622008687e+03,2.639751562261850268e+03,2.574950464868160452e+03,2.497977442463039552e+03,2.409905502210029226e+03,2.318526139308031816e+03,2.231836610272824146e+03,2.156028044505410435e+03,2.091406797744245978e+03,2.034680688919371732e+03,1.978547477518670803e+03,1.919193720469440905e+03,1.858504801097393965e+03,1.805482395976223188e+03,1.768355433622923329e+03,1.750080780368846490e+03,1.746258192348727334e+03,1.749195244627343527e+03,1.751793933851547081e+03,1.751521109586953116e+03,1.749591525682060592e+03,1.748587105624142851e+03,1.748776101204084853e+03,1.749080932784636616e+03,1.748282274043590860e+03,1.745752171925011453e+03,1.740373418686175910e+03,1.730656912056089141e+03,1.716698673982624769e+03,1.700274348422496587e+03,1.684034445968602540e+03,1.668954427678707361e+03,1.655209571711629224e+03,1.642219173906416700e+03,1.630361225422954021e+03,1.619452827312909903e+03,1.609846060051821723e+03,1.601347355586038930e+03,1.594679164761469110e+03,1.589905502210028999e+03,1.587081237616217095e+03,1.585238530711781777e+03,1.583691510440481807e+03,1.581853376009754811e+03,1.579800335314738732e+03,1.577584209724127504e+03,1.575326931870141607e+03,1.573060509068739520e+03,1.570372402580907192e+03,1.567137843147216699e+03,1.563318726820098618e+03,1.559370268759843384e+03,1.555421810699588377e+03,1.551473352639333370e+03,1.547997129502616417e+03,1.545837059052651284e+03,1.544993141289437517e+03,1.544993141289437517e+03,1.544993141289437517e+03,1.544993141289437517e+03,1.544993141289437517e+03,1.544993141289437517e+03,1.544993141289437517e+03,1.544993141289437517e+03,1.544993141289437517e+03,1.545415587054819071e+03,1.547355840065030634e+03,1.550813900320073117e+03,1.555367322054564966e+03,1.559920743789056587e+03,1.564474165523548209e+03,1.569527257023827588e+03,1.576594015139968405e+03,1.587341868617588943e+03,1.603400396281054782e+03,1.625921353452217545e+03,1.655293400396280958e+03,1.691246761164456757e+03,1.731769547325102849e+03,1.775570797134583017e+03,1.819861301630849084e+03,1.862344154854442877e+03,1.897710714830056077e+03,1.923563481176649930e+03,1.940978509373571114e+03,1.960117360158512156e+03,1.988922420362749563e+03,2.028029263831733260e+03,2.064394147233653712e+03,2.088570339887211958e+03,2.101757354061880960e+03,2.120845907636031370e+03,2.157146776406036224e+03,2.210454199055021945e+03,2.265308641975309001e+03,2.309676878524615404e+03,2.338719707361682595e+03,2.357978966620942174e+03,2.374135040390184258e+03,2.392815119646395488e+03,2.416962353299802089e+03,2.450192043895747702e+03,2.497343392775491793e+03,2.560422191739064601e+03,2.633804298125285641e+03,2.704898643499466743e+03,2.762996494436823468e+03
2.772115531169029055e+03,2.782959914647157348e+03,2.842004267642128070e+03,2.922338058222832387e+03,2.994552659655540538e+03,3.044795000762078871e+03,3.066873952141441805e+03,3.062045419905502058e+03,3.031002895900015119e+03,2.976768785246151310e+03,2.905052583447645247e+03,2.824194482548391989e+03,2.740562414266118139e+03,2.656895290352080792e+03,2.572633744855966597e+03,2.487678707514098278e+03,2.402298430117360112e+03,2.318613016308489478e+03,2.238120713305897880e+03,2.162694711172077405e+03,2.091542447797592104e+03,2.023619875019051506e+03,1.956823654930650946e+03,1.892246608748666176e+03,1.833513183965858616e+03,1.786718488035360679e+03,1.756017375400091623e+03,1.741406797744246433e+03,1.738193872885230803e+03,1.740161560737692525e+03,1.742988873647310129e+03,1.746681908245694103e+03,1.752400548696844908e+03,1.759934461210181325e+03,1.765598231976832722e+03,1.766802316720012186e+03,1.763135192805974839e+03,1.756326779454351481e+03,1.746697149824721919e+03,1.733377533912513400e+03,1.716399939033683950e+03,1.697558299039780650e+03,1.679628105471726712e+03,1.663543667123914020e+03,1.649268404206675996e+03,1.636084438347812920e+03,1.624432251181222455e+03,1.614299649443682256e+03,1.605755220240817152e+03,1.598210638622161241e+03,1.592001219326322143e+03,1.587317482091144484e+03,1.584467306812985726e+03,1.582758725803993457e+03,1.581487578113092695e+03,1.579945130315500819e+03,1.578050602042371793e+03,1.575892394452065219e+03,1.573673220545648519e+03,1.571481481481481524e+03,1.569075090179342624e+03,1.566118689562905502e+03,1.562658046706972073e+03,1.558955062744500083e+03,1.555325280699080622e+03,1.551695498653660479e+03,1.548065716608240564e+03,1.545279852326034415e+03,1.543703915392301269e+03,1.543337905807041579e+03,1.543337905807041579e+03,1.543337905807041579e+03,1.543337905807041579e+03,1.543337905807041579e+03,1.543337905807041579e+03,1.543337905807041579e+03,1.543337905807041579e+03,1.543337905807041579e+03,1.544433267286490718e+03,1.547268200985622116e+03,1.551842706904435317e+03,1.557061423563480957e+03,1.562280140222527052e+03,1.567498856881572692e+03,1.573865772494030125e+03,1.583208860437941439e+03,1.597628410303307419e+03,1.618677030940405530e+03,1.646864807194025389e+03,1.682287761012040619e+03,1.723482700807803667e+03,1.768853833257125189e+03,1.814612101813748041e+03,1.856611796982167107e+03,1.889141899100746969e+03,1.911796982167352553e+03,1.928894985520500086e+03,1.951461667428745386e+03,1.983484224965706517e+03,2.019942081999695347e+03,2.046692577351013597e+03,2.060443529949703134e+03,2.071066910531931171e+03,2.097393689986282425e+03,2.144532845602804173e+03,2.203243408017070578e+03,2.254845297972869957e+03,2.290213382106386234e+03,2.310384087791495404e+03,2.324732510288065896e+03,2.341159884163998868e+03,2.364080170705684850e+03,2.395368084133516277e+03,2.437756439567139296e+03,2.494670019814052466e+03,2.564246303917085697e+03,2.636727632982777322e+03,2.698472793781435485e+03,2.743054412437128576e+03
2.774086267337296249e+03,2.781377838744093879e+03,2.835775034293552835e+03,2.912766346593507023e+03,2.984299649443682483e+03,3.035348270080780367e+03,3.060879439109891337e+03,3.064592287761011903e+03,3.049205913732662793e+03,3.013728090230148155e+03,2.954621246761164002e+03,2.871911294010059009e+03,2.771851851851851734e+03,2.666000609663160503e+03,2.564160951074531113e+03,2.471572930955646825e+03,2.386453284560280281e+03,2.306101204084743586e+03,2.227867703094040280e+03,2.151860996799268833e+03,2.077421124828532356e+03,2.004900167657369593e+03,1.935329980185947534e+03,1.871693339429965135e+03,1.817771681146166657e+03,1.776797744246304092e+03,1.750733119951226854e+03,1.738542905044962708e+03,1.736227709190672158e+03,1.738773052888279381e+03,1.743372961438805078e+03,1.751207133058984937e+03,1.762627648224356108e+03,1.774857491236092073e+03,1.781440329218107081e+03,1.779388812680993624e+03,1.769978661789361468e+03,1.757450083828684910e+03,1.743657978966621158e+03,1.728087181832038141e+03,1.710251486053955205e+03,1.691193415637859971e+03,1.673301326017375231e+03,1.657402834933699069e+03,1.643508611492150521e+03,1.630836762688614726e+03,1.619702789208962031e+03,1.610132601737539972e+03,1.602117055326931904e+03,1.595099832342630862e+03,1.589198292943148999e+03,1.584659350708733427e+03,1.581798506325255403e+03,1.580172229843011564e+03,1.579080932784636616e+03,1.577806736777930382e+03,1.576121018137479041e+03,1.574135040390184258e+03,1.572045419905502285e+03,1.569946654473403441e+03,1.567794543514708039e+03,1.565236498501244796e+03,1.562186700875544147e+03,1.558687827058883158e+03,1.555090941421531170e+03,1.551494055784179182e+03,1.547897170146827420e+03,1.544745592643397913e+03,1.542792977019086038e+03,1.542039323273891114e+03,1.542039323273891114e+03,1.542039323273891114e+03,1.542039323273891114e+03,1.542039323273891114e+03,1.542039323273891114e+03,1.542039323273891114e+03,1.542039323273891114e+03,1.542039323273891114e+03,1.542574302697759549e+03,1.544855967078189451e+03,1.548884316415180592e+03,1.554124371284865219e+03,1.559364426154549619e+03,1.564604481024234019e+03,1.570365797896662116e+03,1.578576436518823357e+03,1.591370217954580312e+03,1.611021185794848407e+03,1.638189300411522709e+03,1.673004115226337490e+03,1.714099984758421215e+03,1.759349184575521804e+03,1.804647157445511084e+03,1.845308641975308547e+03,1.876456332876085980e+03,1.899180003048315712e+03,1.918782197835696024e+03,1.944593811918914980e+03,1.976223136716963609e+03,2.005999085505258563e+03,2.022495046486816136e+03,2.030295686633135347e+03,2.044930650815424315e+03,2.082601737540009253e+03,2.139590001524158197e+03,2.199324798049078254e+03,2.243558908702942063e+03,2.268503276939491116e+03,2.281446425849717798e+03,2.294590763603109735e+03,2.316075293400396276e+03,2.347843316567596503e+03,2.389408626733729761e+03,2.441400701112635488e+03,2.505322359396433512e+03,2.576192653558908660e+03,2.641606462429507701e+03,2.688526139308032270e+03,2.715169943606157631e+03
2.780076207895137941e+03,2.790548696844993174e+03,2.840787989635726717e+03,2.909856729157140308e+03,2.972953818015546403e+03,3.014427678707514133e+03,3.031624752324340989e+03,3.033470507544581778e+03,3.027629934461209814e+03,3.011065386374028094e+03,2.969716506630086769e+03,2.893601585124219127e+03,2.786329827770156953e+03,2.667244322511812243e+03,2.554721841182746630e+03,2.458184727937814387e+03,2.372978204541990635e+03,2.292409693644261552e+03,2.211447950007620875e+03,2.130544124371285307e+03,2.051255906111873173e+03,1.976308489559518193e+03,1.909120560890108209e+03,1.851903673220545443e+03,1.806181984453589394e+03,1.771761926535589282e+03,1.749766803840877856e+03,1.739914647157445415e+03,1.739664685261393061e+03,1.744695930498399548e+03,1.752162780064014669e+03,1.762766346593507023e+03,1.775672915714067813e+03,1.786780978509373654e+03,1.789347660417619181e+03,1.781486053955189846e+03,1.766364883401920451e+03,1.749554945892394471e+03,1.733548239597622342e+03,1.717672610882487561e+03,1.700816948635878816e+03,1.683083371437280903e+03,1.666252095717116390e+03,1.651105014479499914e+03,1.637914951989026122e+03,1.626041761926535401e+03,1.615602804450541043e+03,1.606534064929126771e+03,1.598776101204084853e+03,1.591992074378905500e+03,1.586244474927602596e+03,1.581835086114921523e+03,1.578992531626276559e+03,1.577443987197073739e+03,1.576503581771071367e+03,1.575503734186861720e+03,1.574107605547934781e+03,1.572402072854747530e+03,1.570498399634202315e+03,1.568474317939338334e+03,1.566299344612102004e+03,1.563956459889244343e+03,1.561214796186218337e+03,1.558112457450591819e+03,1.554725905603820365e+03,1.551339353757049139e+03,1.547952801910277913e+03,1.544566250063506459e+03,1.542308548832325641e+03,1.541179698216735233e+03,1.541179698216735233e+03,1.541179698216735233e+03,1.541179698216735233e+03,1.541179698216735233e+03,1.541179698216735233e+03,1.541179698216735233e+03,1.541179698216735233e+03,1.541179698216735233e+03,1.541179698216735233e+03,1.542898694304730043e+03,1.546336686480719209e+03,1.551493674744703640e+03,1.556650663008687616e+03,1.561807651272672047e+03,1.566964639536656023e+03,1.574095666311029845e+03,1.585328456028044911e+03,1.603446121018137546e+03,1.629061118731900478e+03,1.662097241274196222e+03,1.701051668952903356e+03,1.743664075598232102e+03,1.786404511507392272e+03,1.825479347660417716e+03,1.857373875933546515e+03,1.883691510440481807e+03,1.908308184727937487e+03,1.936855662246608972e+03,1.965052583447645020e+03,1.985775034293553063e+03,1.993511659807955994e+03,2.000597469897881410e+03,2.024144185337600902e+03,2.073988721231519321e+03,2.137479042828837464e+03,2.194336229233348604e+03,2.230140222527053538e+03,2.247568968145099461e+03,2.259073311995122822e+03,2.277693949093126321e+03,2.309762231367169534e+03,2.353203779911598758e+03,2.404285932022557063e+03,2.461533302850175460e+03,2.525404663923182397e+03,2.590169181527206092e+03,2.643097088858406096e+03,2.672760249961896534e+03,2.680152415790275882e+03
2.789942081999694892e+03,2.811614083219021722e+03,2.860304831580551763e+03,2.918239597622313795e+03,2.964778235025149115e+03,2.986310013717421043e+03,2.985230909922267983e+03,2.977661941777168067e+03,2.975753696082914303e+03,2.974630391708580646e+03,2.951199512269470688e+03,2.888061271147691059e+03,2.785650053345526885e+03,2.667172687090382169e+03,2.554497789971041129e+03,2.458483462886755206e+03,2.372184118274653429e+03,2.287174211248285701e+03,2.198465172991922373e+03,2.108590153939948323e+03,2.022277091906721580e+03,1.944935223289132409e+03,1.881386983691510068e+03,1.832039323273890886e+03,1.795172991921963330e+03,1.767561347355586349e+03,1.749903978052126149e+03,1.743187014174668548e+03,1.746178936137783921e+03,1.754828532235939747e+03,1.765317786922725190e+03,1.776790123456790297e+03,1.787235177564395599e+03,1.792571254381954077e+03,1.788084133516232214e+03,1.774022252705380197e+03,1.755048010973936925e+03,1.736468526139308096e+03,1.720335314738606939e+03,1.705493065081542454e+03,1.690425240054869619e+03,1.674586191129400959e+03,1.659140374942844119e+03,1.644868160341411340e+03,1.632286236854137996e+03,1.621060813900319999e+03,1.611205608901082314e+03,1.602600213382106631e+03,1.595125743026977489e+03,1.588593202255754022e+03,1.583046791647614782e+03,1.578815729309556446e+03,1.576076817558298899e+03,1.574659350708733427e+03,1.573912513336381608e+03,1.573212924859015629e+03,1.572156683432403497e+03,1.570760554793476558e+03,1.569042828837067418e+03,1.567082761774119945e+03,1.564921505868008126e+03,1.562851699436061381e+03,1.560395773002082933e+03,1.557561347355585895e+03,1.554180765127267250e+03,1.550800182898948378e+03,1.547419600670629507e+03,1.544039018442310635e+03,1.541785296956764341e+03,1.540658436213991536e+03,1.540658436213991536e+03,1.540658436213991536e+03,1.540658436213991536e+03,1.540658436213991536e+03,1.540658436213991536e+03,1.540658436213991536e+03,1.540658436213991536e+03,1.540658436213991536e+03,1.540658436213991536e+03,1.542212569222171396e+03,1.545320835238530890e+03,1.549983234263069562e+03,1.554645633287608689e+03,1.559308032312147589e+03,1.563970431336686488e+03,1.570267235685617152e+03,1.580205761316872668e+03,1.596473098613016418e+03,1.619931412894376081e+03,1.650416095107452975e+03,1.686203322664228153e+03,1.725147081237616248e+03,1.764552659655540310e+03,1.802263374485596614e+03,1.836046334400243950e+03,1.867280902301478363e+03,1.896997408931565133e+03,1.926523395823807505e+03,1.948943758573388322e+03,1.960144795000762088e+03,1.962024081694863526e+03,1.972737387593354924e+03,2.007245846669715093e+03,2.067195549458924233e+03,2.133232738911750857e+03,2.185294924554184036e+03,2.215016003657979127e+03,2.230993750952598475e+03,2.248305136412132470e+03,2.277934766041761577e+03,2.322354823959762143e+03,2.375642432556012864e+03,2.432010364273738560e+03,2.488954427678707361e+03,2.546418228928517237e+03,2.599199817101051394e+03,2.636066148452979633e+03,2.647605547934765582e+03,2.635679012345679439e+03
2.798657216887669165e+03,2.838460600518213596e+03,2.890228623685414277e+03,2.936901386983691282e+03,2.962132296905959720e+03,2.957882944673067868e+03,2.934337753391251681e+03,2.914285932022557972e+03,2.911595793324188435e+03,2.919115988416399887e+03,2.909300411522634022e+03,2.862479804907788548e+03,2.776844993141289251e+03,2.673845450388660083e+03,2.572255753696083048e+03,2.480420667581161524e+03,2.390141746684956615e+03,2.294346898338668325e+03,2.191585124218869169e+03,2.088817253467459068e+03,1.994354519128181892e+03,1.915368084133516277e+03,1.855925925925925867e+03,1.813975003810394810e+03,1.784752324340801806e+03,1.763372961438805078e+03,1.750379515317786854e+03,1.747730528882792441e+03,1.754776710867246038e+03,1.767320530406950184e+03,1.780219478737997179e+03,1.790760554793476786e+03,1.796060051821368688e+03,1.793176345069349281e+03,1.780720926688004738e+03,1.761452522481328970e+03,1.740755982319768464e+03,1.722493522328913286e+03,1.707491236092059125e+03,1.694035970126505163e+03,1.680521262002743242e+03,1.666235329980186179e+03,1.651960067062947473e+03,1.638513946044810154e+03,1.626520347508001578e+03,1.615886297820454047e+03,1.606576741350403836e+03,1.598433165675964119e+03,1.591306203322664260e+03,1.585052583447645247e+03,1.579751562261850495e+03,1.575729309556470071e+03,1.573179393385154754e+03,1.571946349641822735e+03,1.571425087639079266e+03,1.570983081847279209e+03,1.570198140527358646e+03,1.569024538942234358e+03,1.567468373723517743e+03,1.565633287608596220e+03,1.563610730071635317e+03,1.561684194482548264e+03,1.559364172128232440e+03,1.556643042219174049e+03,1.553377533912513172e+03,1.550112025605852523e+03,1.546846517299192101e+03,1.543581008992531679e+03,1.541404003454757913e+03,1.540315500685871257e+03,1.540315500685871257e+03,1.540315500685871257e+03,1.540315500685871257e+03,1.540315500685871257e+03,1.540315500685871257e+03,1.540315500685871257e+03,1.540315500685871257e+03,1.540315500685871257e+03,1.540315500685871257e+03,1.541783518772544539e+03,1.544719554945892241e+03,1.549123609205913681e+03,1.553527663465934893e+03,1.557931717725956560e+03,1.562335771985977772e+03,1.567980236752527389e+03,1.576575217192501214e+03,1.590506020423715881e+03,1.610858100899253259e+03,1.637803688462124455e+03,1.669975613473555995e+03,1.705822283188538222e+03,1.743126047858558195e+03,1.780702636793171905e+03,1.816602652034750690e+03,1.851636945587563105e+03,1.884048163389727279e+03,1.911818320377991313e+03,1.927209266880048972e+03,1.930349032159731905e+03,1.929882639841487844e+03,1.946360310928212130e+03,1.990428288370675318e+03,2.056349641822892863e+03,2.122146014327084231e+03,2.170493827160493765e+03,2.199242493522328914e+03,2.220396281054717292e+03,2.248702941624752384e+03,2.290313976527968407e+03,2.343202255753696136e+03,2.399676878524614949e+03,2.455043438500228149e+03,2.507390641670477635e+03,2.555976223136717635e+03,2.595358939186100088e+03,2.615794848346288745e+03,2.609442158207590637e+03,2.578506325255296815e+03
2.792417314433775118e+03,2.849036732205456246e+03,2.904840725499161636e+03,2.941790885535741381e+03,2.947529340039628096e+03,2.921607986587410778e+03,2.882103337905807166e+03,2.854813290656912613e+03,2.851670477061423753e+03,2.862877610120408463e+03,2.862301478433165812e+03,2.832687090382563838e+03,2.771048620637097883e+03,2.692025605852766148e+03,2.606866331351927784e+03,2.519304983996341889e+03,2.421476909007772974e+03,2.310028959000153009e+03,2.189213534522176815e+03,2.071856424325560511e+03,1.969690595945739915e+03,1.890367322054564738e+03,1.835041914342325754e+03,1.798931565310166206e+03,1.775264441396128859e+03,1.759268404206675768e+03,1.751446425849718025e+03,1.753696082914189901e+03,1.764863587867703018e+03,1.780317024843773879e+03,1.794077122389879833e+03,1.802046944063405135e+03,1.801105014479499914e+03,1.789989330894680734e+03,1.770795610425239829e+03,1.748295991464715598e+03,1.727690900777320394e+03,1.710812376162170267e+03,1.697081237616217095e+03,1.684458161865569309e+03,1.671614083219021722e+03,1.658120713305898789e+03,1.644662399024538900e+03,1.632051516537113457e+03,1.620769699740893202e+03,1.610739216582837798e+03,1.601905197378448520e+03,1.594157902758725868e+03,1.587401310775796446e+03,1.581466239902453708e+03,1.576457857033988603e+03,1.572670324645633173e+03,1.570362749580856644e+03,1.569350708733424881e+03,1.569055022100289534e+03,1.568782197835696024e+03,1.568129858253315206e+03,1.567053802773967163e+03,1.565645480871818108e+03,1.564035970126505163e+03,1.562284712696235374e+03,1.560538027739673680e+03,1.558427069044352947e+03,1.555922877610120395e+03,1.552972107910379464e+03,1.549972565157750296e+03,1.546973022405121128e+03,1.543973479652492188e+03,1.541687242798353964e+03,1.540400853528425614e+03,1.540114311842706911e+03,1.540114311842706911e+03,1.540114311842706911e+03,1.540114311842706911e+03,1.540114311842706911e+03,1.540114311842706911e+03,1.540114311842706911e+03,1.540114311842706911e+03,1.540114311842706911e+03,1.541075039374079097e+03,1.543594472387339010e+03,1.547672610882487334e+03,1.552348727328151199e+03,1.557024843773815064e+03,1.561700960219478702e+03,1.567060915510847053e+03,1.574491185286796053e+03,1.586029568663313512e+03,1.603232738911751312e+03,1.626919676878524569e+03,1.656450236244475036e+03,1.690763603109282030e+03,1.727504953513183864e+03,1.765586038713610606e+03,1.802876085962505840e+03,1.839391860996799551e+03,1.871068434689833794e+03,1.893904892546868041e+03,1.901667428745618054e+03,1.899326322206980876e+03,1.900077732053040563e+03,1.922805974698978844e+03,1.973025453436976250e+03,2.040192043895747929e+03,2.103859167809785049e+03,2.150222527053802423e+03,2.182005791800030693e+03,2.211562261850327559e+03,2.251197988111568520e+03,2.300640146319158703e+03,2.354459686023471932e+03,2.405994513031550014e+03,2.454948940710257375e+03,2.500730071635421609e+03,2.541039475689681240e+03,2.568433165675964119e+03,2.574234110653864263e+03,2.552277091906721580e+03,2.506527968297515145e+03
2.758931565310165752e+03,2.821672001219325921e+03,2.876409083981100594e+03,2.905000762078951539e+03,2.899237921048621047e+03,2.864976375552507307e+03,2.824520652339582739e+03,2.800987654320987986e+03,2.802142966011278986e+03,2.816098155768937886e+03,2.822066758116141045e+03,2.806468526139307869e+03,2.765631763450693597e+03,2.706601127876848295e+03,2.634135040390184258e+03,2.548506325255296360e+03,2.442834933699131398e+03,2.317143728090230070e+03,2.180791037951531962e+03,2.052171925011431085e+03,1.945848193872885304e+03,1.868882792257277742e+03,1.818559670781892919e+03,1.787572016460905388e+03,1.768481938728852356e+03,1.757767108672458562e+03,1.755775034293552835e+03,1.763022405121170777e+03,1.776983691510440394e+03,1.792709952751104993e+03,1.804651729919219633e+03,1.808413351623228209e+03,1.801310775796372582e+03,1.783597012650510578e+03,1.760070111263526996e+03,1.736582837982015008e+03,1.717445511354976361e+03,1.702414266117969646e+03,1.689667733577198533e+03,1.677120865721688915e+03,1.664002438652644742e+03,1.650449626581313851e+03,1.637322054564853033e+03,1.625419905502209986e+03,1.614977899710410156e+03,1.605720164609053427e+03,1.597472946197226292e+03,1.590150891632373259e+03,1.583741807651272666e+03,1.578091754305746008e+03,1.573344002438652296e+03,1.569768327998780705e+03,1.567677183356195656e+03,1.566844993141289478e+03,1.566701722298430013e+03,1.566499009297363045e+03,1.565878677030940707e+03,1.564843773814967108e+03,1.563592440176802256e+03,1.562258802011888292e+03,1.560810852004267645e+03,1.559225727785398703e+03,1.557277599959355712e+03,1.554974851394604229e+03,1.552407534420565753e+03,1.549815195854290550e+03,1.547265660722450775e+03,1.544716125590611227e+03,1.542515876644820537e+03,1.540951455570797179e+03,1.540236879540720338e+03,1.540022862368541382e+03,1.540022862368541382e+03,1.540022862368541382e+03,1.540022862368541382e+03,1.540022862368541382e+03,1.540022862368541382e+03,1.540022862368541382e+03,1.540022862368541382e+03,1.540504242239496079e+03,1.542064979931920789e+03,1.545432860844383413e+03,1.550126505105929027e+03,1.555547934766041863e+03,1.560969364426154470e+03,1.566660824061372750e+03,1.573423512675913116e+03,1.583094802621551480e+03,1.597642127724432385e+03,1.618898033836305558e+03,1.646959304983996390e+03,1.680999847584209647e+03,1.718204541990550297e+03,1.756898338667885810e+03,1.794503886602651846e+03,1.829801859472641354e+03,1.857232129248590354e+03,1.872644413961286318e+03,1.873875933546715260e+03,1.870429812528578168e+03,1.876869379667733710e+03,1.906526444139612977e+03,1.959864349946654556e+03,2.024418533760097489e+03,2.084214296601128353e+03,2.128677030940405530e+03,2.163537570492303075e+03,2.199312604785855910e+03,2.245369608291419354e+03,2.295651577503429507e+03,2.343482700807804122e+03,2.384921505868007898e+03,2.425049535131839548e+03,2.463923182441701101e+03,2.496883097088858449e+03,2.513939948178631312e+03,2.507896662094192834e+03,2.475723212924859126e+03,2.425055631763450492e+03
2.699164761469288351e+03,2.753494894071025556e+03,2.799295839048925245e+03,2.821304679164761637e+03,2.815093735711019690e+03,2.788686175887822174e+03,2.762522481329065613e+03,2.752659655540313906e+03,2.762901996646853149e+03,2.780969364426155153e+03,2.792042371589696359e+03,2.784427678707514133e+03,2.753523853071178110e+03,2.701481481481481751e+03,2.631333638164913737e+03,2.543551287913427586e+03,2.432879134278311085e+03,2.300734644109129931e+03,2.158469745465629785e+03,2.027238225880201071e+03,1.922905044962658167e+03,1.851347355586038475e+03,1.806691053193110747e+03,1.780210333790580762e+03,1.765279682975155993e+03,1.760172229843011792e+03,1.764570949550373371e+03,1.776212467611644570e+03,1.790373418686175683e+03,1.802318244170096023e+03,1.808744093888127054e+03,1.806694101508916447e+03,1.794531321444901778e+03,1.773187014174668548e+03,1.748552049992379352e+03,1.726424325560128182e+03,1.709865874104557406e+03,1.696974546563023978e+03,1.684977899710409929e+03,1.672005791800030465e+03,1.657966773357719831e+03,1.643766194177716670e+03,1.630530406950160113e+03,1.619070263679317122e+03,1.609330894680688971e+03,1.600818472793781439e+03,1.593156531016613599e+03,1.586276482243560622e+03,1.580210333790580762e+03,1.574875781130925134e+03,1.570406950160036786e+03,1.567055326931870468e+03,1.565131839658588660e+03,1.564412437128486545e+03,1.564343850022862625e+03,1.564186861758878194e+03,1.563612254229538166e+03,1.562653558908702735e+03,1.561542447797591876e+03,1.560403901844230859e+03,1.559140374942843891e+03,1.557651272671849028e+03,1.555868007925621214e+03,1.553893461362597009e+03,1.551812096733221551e+03,1.549704694406340423e+03,1.547587258039932749e+03,1.545469821673525303e+03,1.543352385307117629e+03,1.541521490626428886e+03,1.540396408067875882e+03,1.539977137631458618e+03,1.539977137631458618e+03,1.539977137631458618e+03,1.539977137631458618e+03,1.539977137631458618e+03,1.539977137631458618e+03,1.539977137631458618e+03,1.539977137631458618e+03,1.539977137631458618e+03,1.540575115581974387e+03,1.543206828227404230e+03,1.547872275567749057e+03,1.553973479652492188e+03,1.560074683737235318e+03,1.566175887821978449e+03,1.572643905908652187e+03,1.581290961743636899e+03,1.594494741655235657e+03,1.614831580551745219e+03,1.642719097698521409e+03,1.677018747142204120e+03,1.714557232129248405e+03,1.752996494436823468e+03,1.789376619417771508e+03,1.820752934003962764e+03,1.841170553269318589e+03,1.848373723517756616e+03,1.846117969821673341e+03,1.847210791037951594e+03,1.864211248285322199e+03,1.902519433013260141e+03,1.957761012040847390e+03,2.017544581618655684e+03,2.071127876848041524e+03,2.111010516689529140e+03,2.144628867550678478e+03,2.180440481633896979e+03,2.225624142661180031e+03,2.270733119951227309e+03,2.309583904892546798e+03,2.340972412741959488e+03,2.373528425544886431e+03,2.406401463191586572e+03,2.431815272062185613e+03,2.438518518518518249e+03,2.422778539856728457e+03,2.388068891937204626e+03,2.346936442615455235e+03
2.631932632220697997e+03,2.671891479957323099e+03,2.706634659350708716e+03,2.725729309556469616e+03,2.727357110196616304e+03,2.717788446883097095e+03,2.710823045267489761e+03,2.715041914342325981e+03,2.732921810699588605e+03,2.754759945130315828e+03,2.769957323578722935e+03,2.765887821978356897e+03,2.735820759030635600e+03,2.679948178631306291e+03,2.603188538332570715e+03,2.508943758573388095e+03,2.394348422496570493e+03,2.261531778692272837e+03,2.121955494589239606e+03,1.996628562719097999e+03,1.900460295686632890e+03,1.837114769090077743e+03,1.798661789361377714e+03,1.776427373875933654e+03,1.765776558451455458e+03,1.766665142508763665e+03,1.777328151196463978e+03,1.791905197378448520e+03,1.803141289437585556e+03,1.807395214144185502e+03,1.805073921658283552e+03,1.796357262612406657e+03,1.780922115531169084e+03,1.759365950312452469e+03,1.736718488035360679e+03,1.717680231672001128e+03,1.704101508916323610e+03,1.693272367017222678e+03,1.681955494589239379e+03,1.668590153939948095e+03,1.653610730071635317e+03,1.638606919676878533e+03,1.624950464868160225e+03,1.613513183965858843e+03,1.604080170705685305e+03,1.596064624295077238e+03,1.588893461362597463e+03,1.582461515012955488e+03,1.576765736930346065e+03,1.571810699588477519e+03,1.567677183356195883e+03,1.564584666971498336e+03,1.562778539856729367e+03,1.562089620484682200e+03,1.562028654168571848e+03,1.561935680536503469e+03,1.561469288218259180e+03,1.560617283950617093e+03,1.559567139155616587e+03,1.558457552202408124e+03,1.557229080932784655e+03,1.555822283188538222e+03,1.554205151653711255e+03,1.552555250723974723e+03,1.550837905807041352e+03,1.549124032583108828e+03,1.547341233551795995e+03,1.545591246253111422e+03,1.543841258954427758e+03,1.542091271655743640e+03,1.540760554793476558e+03,1.540013167030771228e+03,1.539849108367626968e+03,1.539849108367626968e+03,1.539849108367626968e+03,1.539849108367626968e+03,1.539849108367626968e+03,1.539849108367626968e+03,1.539849108367626968e+03,1.539849108367626968e+03,1.539849108367626968e+03,1.541284865112025727e+03,1.545080018289894952e+03,1.551234567901234868e+03,1.558312757201646491e+03,1.565390946502057886e+03,1.572469135802469282e+03,1.580800182898948378e+03,1.593284560280445248e+03,1.612920286541685527e+03,1.640775796372504146e+03,1.675023624447492921e+03,1.712379210486206603e+03,1.749553421734491621e+03,1.782597165066300704e+03,1.807236701722298449e+03,1.819353757049230353e+03,1.821036427373875767e+03,1.821571406797744430e+03,1.834017680231671875e+03,1.865619570187471254e+03,1.913728090230147927e+03,1.970156988263983976e+03,2.023927754915409196e+03,2.068931565310166661e+03,2.101054717268709283e+03,2.128774577046182003e+03,2.159141899100746741e+03,2.197629934461210723e+03,2.234096936442615515e+03,2.264011583600060476e+03,2.288541380887059859e+03,2.316922725194329814e+03,2.345916780978509451e+03,2.364147233653406147e+03,2.361502819692119829e+03,2.339827770156988208e+03,2.311597317482091057e+03,2.292792257277853423e+03
2.581272671848803384e+03,2.611784788904130437e+03,2.641386983691510068e+03,2.663659503124523781e+03,2.676878524615150582e+03,2.683720469440634133e+03,2.690205761316872668e+03,2.700949550373418788e+03,2.720089925316262452e+03,2.743092516384697774e+03,2.761472336534065562e+03,2.760509068739521354e+03,2.729981710105167167e+03,2.668297515622618448e+03,2.581408321902149055e+03,2.475979271452522880e+03,2.353307422648986176e+03,2.218430117360158420e+03,2.083356195701874640e+03,1.967005029721079154e+03,1.881182746532540932e+03,1.826495960981557573e+03,1.793830208809632495e+03,1.775474775186709394e+03,1.768910227099527219e+03,1.775204999237920902e+03,1.790708733424783077e+03,1.806325255296448631e+03,1.812613930803231142e+03,1.807608596250571736e+03,1.795589087029416078e+03,1.780627953055936587e+03,1.763738759335467194e+03,1.744647157445511311e+03,1.726099679926840508e+03,1.710967840268251848e+03,1.700144795000761860e+03,1.690957171162932354e+03,1.680231672001219522e+03,1.666654473403444626e+03,1.650951074531321410e+03,1.635240054869684400e+03,1.621101966163694442e+03,1.609455875628714921e+03,1.599940557841792270e+03,1.591970736168267194e+03,1.584903215973175065e+03,1.578683127572016701e+03,1.573278463648834304e+03,1.568734948940710410e+03,1.564994665447340367e+03,1.562193263222069845e+03,1.560483158055174499e+03,1.559803383630543976e+03,1.559765279682975006e+03,1.559792714525224710e+03,1.559474165523548209e+03,1.558696844993141212e+03,1.557607072092668659e+03,1.556410608139002989e+03,1.555172991921963103e+03,1.553910989178478985e+03,1.552592592592592609e+03,1.551356500533455119e+03,1.550052075395010888e+03,1.548655227014852244e+03,1.547066885129299408e+03,1.545445308133922708e+03,1.543823731138546009e+03,1.542202154143169309e+03,1.540785830412030919e+03,1.539910032346017942e+03,1.539574759945130609e+03,1.539574759945130609e+03,1.539574759945130609e+03,1.539574759945130609e+03,1.539574759945130609e+03,1.539574759945130609e+03,1.539574759945130609e+03,1.539574759945130609e+03,1.539574759945130609e+03,1.540282731290961920e+03,1.543543413097597067e+03,1.549356805365035825e+03,1.557014936747447109e+03,1.564673068129858393e+03,1.572331199512269677e+03,1.580621094345374104e+03,1.592890819488899069e+03,1.611970736168267194e+03,1.639460448102423243e+03,1.672938576436518815e+03,1.709003200731595598e+03,1.743208352385307080e+03,1.770602042371589732e+03,1.787192501143118534e+03,1.792863892699283497e+03,1.794695930498399548e+03,1.804554183813443160e+03,1.832245084590763554e+03,1.878239597622313568e+03,1.934177716811461551e+03,1.989864349946654556e+03,2.036622466087486828e+03,2.071716201798506063e+03,2.094811766499009082e+03,2.114999237921048461e+03,2.138731900624904483e+03,2.169605243103185330e+03,2.198480414570949506e+03,2.222458466697150016e+03,2.244392623075751089e+03,2.271633897271757178e+03,2.298379820149367788e+03,2.310855052583448014e+03,2.302953818015546403e+03,2.282862368541380874e+03,2.270841335162322139e+03,2.281780216430421660e+03
2.559074836153025444e+03,2.592129248590153566e+03,2.627587258039933204e+03,2.660309404054260085e+03,2.685942691662856305e+03,2.703810394756897040e+03,2.714330132601737205e+03,2.722818167962201187e+03,2.736659045877153403e+03,2.757526291723822396e+03,2.777806736777930382e+03,2.781603414113702001e+03,2.754228014022252410e+03,2.690408474317939181e+03,2.593403444596860027e+03,2.471864045115073623e+03,2.333049839963420254e+03,2.188486511202560450e+03,2.052937052278616193e+03,1.943016308489559606e+03,1.866072245084590804e+03,1.818888888888888914e+03,1.791335162322816586e+03,1.776703246456332636e+03,1.773914037494284457e+03,1.784235634811766431e+03,1.802280140222526825e+03,1.817061423563481185e+03,1.818154244779759210e+03,1.805285779606767164e+03,1.785383325712543865e+03,1.765611949397957687e+03,1.748146623990245416e+03,1.732078951379362934e+03,1.717765584514555712e+03,1.706058527663465611e+03,1.697194025301020929e+03,1.688960524310318306e+03,1.678715134887974500e+03,1.665195854290504485e+03,1.649230300259107025e+03,1.633132144490169139e+03,1.618709038256363101e+03,1.606820606614845246e+03,1.597015698826398420e+03,1.588692272519433118e+03,1.581345831428135853e+03,1.575049535131839548e+03,1.569824721841182736e+03,1.565656149977137602e+03,1.562306050906873907e+03,1.559768327998780705e+03,1.558132906569120451e+03,1.557460752934003722e+03,1.557483615302545331e+03,1.557661941777168067e+03,1.557491236092059125e+03,1.556745922877610155e+03,1.555592135345221777e+03,1.554322511812223638e+03,1.553141289437585556e+03,1.552086572168876728e+03,1.551089772900472553e+03,1.550143270842859238e+03,1.549076106284611114e+03,1.547853773984318423e+03,1.546447314941827926e+03,1.544998729868414557e+03,1.543550144795000961e+03,1.542101559721587364e+03,1.540652974648173540e+03,1.539687251265898112e+03,1.539204389574760171e+03,1.539204389574760171e+03,1.539204389574760171e+03,1.539204389574760171e+03,1.539204389574760171e+03,1.539204389574760171e+03,1.539204389574760171e+03,1.539204389574760171e+03,1.539204389574760171e+03,1.539204389574760171e+03,1.541961845247167730e+03,1.547476756591983076e+03,1.555749123609205981e+03,1.564021490626429113e+03,1.572293857643651791e+03,1.580566224660874695e+03,1.592522227302748433e+03,1.610699588477365978e+03,1.637126962353299859e+03,1.668931565310166206e+03,1.702443225118122427e+03,1.732324340801706967e+03,1.753388203017832893e+03,1.763930803231214668e+03,1.768449931412894330e+03,1.777180307879896418e+03,1.800309404054260085e+03,1.841896052431031876e+03,1.896665142508763665e+03,1.954352994970278814e+03,2.005456485291876334e+03,2.044202103337905555e+03,2.069971040999847446e+03,2.085680536503581607e+03,2.100445054107605756e+03,2.120522786160645865e+03,2.147308337143728295e+03,2.173002591068434413e+03,2.195261393080323160e+03,2.217254991617131509e+03,2.243409541228471426e+03,2.267248894985520110e+03,2.276880048773052749e+03,2.272638317329675374e+03,2.266892242036274638e+03,2.280531931108062508e+03,2.320888584057307980e+03
2.564581618655692637e+03,2.607026367931718141e+03,2.654673068129858621e+03,2.702275567748818503e+03,2.741443377533912098e+03,2.768184727937814387e+03,2.779634202103337884e+03,2.783770766651425220e+03,2.790597469897881183e+03,2.806796220088401242e+03,2.825523548239597403e+03,2.831670477061423298e+03,2.806791647614692920e+03,2.741080627953055682e+03,2.632981252857795880e+03,2.492301478433165812e+03,2.332799878067367899e+03,2.173808870598993963e+03,2.033587867703094389e+03,1.926646852613930832e+03,1.855883249504648575e+03,1.814514555707971340e+03,1.791441853376009931e+03,1.780306355738454613e+03,1.780457247370827645e+03,1.792716049382715937e+03,1.810897729004725079e+03,1.823772290809327842e+03,1.821158360006096473e+03,1.803688462124676107e+03,1.779114464258497264e+03,1.756121018137478814e+03,1.737873799725651452e+03,1.723478128334095345e+03,1.711705532693187024e+03,1.701833561957018446e+03,1.693728090230147473e+03,1.685755220240816925e+03,1.675903063557384485e+03,1.662796829751562427e+03,1.647152873037646714e+03,1.631181222374638082e+03,1.616851089772900423e+03,1.604897119341563666e+03,1.594823959762231425e+03,1.585992988873647391e+03,1.578160341411370155e+03,1.571583600060966091e+03,1.566410608139002989e+03,1.562520957171162991e+03,1.559510745313214557e+03,1.557216887669562539e+03,1.555692729766803723e+03,1.555080018289894952e+03,1.555206523395823751e+03,1.555531169029111197e+03,1.555490016765736982e+03,1.554785855814662455e+03,1.553644261545495965e+03,1.552402072854747985e+03,1.551332114007011114e+03,1.550420667581161297e+03,1.549574759945130381e+03,1.548696844993141212e+03,1.547698521566834415e+03,1.546561245745059068e+03,1.545312452370065785e+03,1.544026825179088519e+03,1.542741197988111708e+03,1.541455570797134669e+03,1.540169943606157631e+03,1.539312858812173090e+03,1.538884316415180820e+03,1.538884316415180820e+03,1.538884316415180820e+03,1.538884316415180820e+03,1.538884316415180820e+03,1.538884316415180820e+03,1.538884316415180820e+03,1.538884316415180820e+03,1.538884316415180820e+03,1.538884316415180820e+03,1.541609002692679042e+03,1.547058375247675713e+03,1.555232434080170833e+03,1.563406492912665726e+03,1.571580551745160847e+03,1.579754610577655740e+03,1.591584108113600450e+03,1.609262307575064824e+03,1.634415485444292017e+03,1.663810394756896812e+03,1.693700655387897996e+03,1.719006249047401070e+03,1.736035665294924456e+03,1.745875628715135008e+03,1.755592135345221777e+03,1.774619722603261835e+03,1.808786770309404346e+03,1.856950160036579746e+03,1.911626276482243384e+03,1.964138088705989958e+03,2.007488187776253653e+03,2.038448407254991480e+03,2.057108672458466117e+03,2.068251790885535229e+03,2.080443529949702224e+03,2.100490778844688066e+03,2.128396585886297544e+03,2.157360158512422004e+03,2.183173296753544037e+03,2.206433470507544371e+03,2.228686175887822174e+03,2.246724584666971168e+03,2.256896814509983415e+03,2.266924249352232891e+03,2.288433165675963664e+03,2.333162627648224316e+03,2.396181984453589394e+03
2.587611644566377436e+03,2.639417771681145950e+03,2.698009449778997805e+03,2.759530559365950012e+03,2.813068129858253542e+03,2.851141594269166035e+03,2.867783874409388318e+03,2.871149215058680056e+03,2.871629324798048856e+03,2.879481786313062003e+03,2.890445054107605756e+03,2.892083523853070801e+03,2.863778387440938332e+03,2.791992074378906182e+03,2.671603414113702001e+03,2.513624447492760282e+03,2.336849565614997573e+03,2.166026520347508267e+03,2.021714677640603895e+03,1.916692577351013597e+03,1.850531931108062736e+03,1.813696082914189901e+03,1.794202103337906010e+03,1.785657674135040452e+03,1.787457704618198477e+03,1.799940557841792497e+03,1.817001981405273455e+03,1.828065843621398926e+03,1.823746380124980760e+03,1.804602956866331624e+03,1.777950007620789393e+03,1.752754153330284907e+03,1.733068129858253542e+03,1.718454503886602652e+03,1.706919676878524569e+03,1.696846517299192101e+03,1.688024691358024256e+03,1.679570187471422059e+03,1.670059442158207503e+03,1.657940862673372976e+03,1.643464410912970607e+03,1.628334095412284796e+03,1.614482548392013314e+03,1.602556012802926489e+03,1.592248132906569481e+03,1.582984301173601807e+03,1.574823959762231425e+03,1.568108520042676219e+03,1.563065081542447842e+03,1.559451303155007054e+03,1.556784026825179126e+03,1.554785855814662455e+03,1.553470507544581778e+03,1.552970583752477069e+03,1.553171772595640959e+03,1.553560432860844458e+03,1.553604633440024372e+03,1.552981252857796107e+03,1.551934156378601074e+03,1.550752934003962764e+03,1.549711934156378447e+03,1.548750190519737771e+03,1.547826550830666065e+03,1.546852613930803045e+03,1.545791800030483046e+03,1.544714728445866967e+03,1.543650358177106909e+03,1.542655083066605584e+03,1.541659807956104260e+03,1.540664532845602707e+03,1.539669257735101382e+03,1.539005740994767166e+03,1.538673982624600058e+03,1.538673982624600058e+03,1.538673982624600058e+03,1.538673982624600058e+03,1.538673982624600058e+03,1.538673982624600058e+03,1.538673982624600058e+03,1.538673982624600058e+03,1.538673982624600058e+03,1.538673982624600058e+03,1.541337956612305106e+03,1.546665904587715431e+03,1.554657826550831032e+03,1.562649748513945951e+03,1.570641670477061552e+03,1.578633592440176699e+03,1.590262409185591423e+03,1.607349489407102510e+03,1.631007468373723441e+03,1.657576588934613937e+03,1.683830208809632495e+03,1.706186556927297715e+03,1.723363816491388661e+03,1.738049077884468943e+03,1.756771833561957010e+03,1.785203475080018279e+03,1.824670019814052921e+03,1.871246761164456530e+03,1.918573388203017657e+03,1.961379362901996501e+03,1.995808565767413711e+03,2.020413046791647503e+03,2.034927602499618843e+03,2.044285932022557063e+03,2.056011278768480224e+03,2.078050602042371338e+03,2.110469440634049533e+03,2.146877000457247505e+03,2.178835543362291901e+03,2.201792409693644004e+03,2.216099679926840508e+03,2.226366407559823074e+03,2.241813747904282991e+03,2.274907788446883387e+03,2.330070111263526996e+03,2.402485901539399038e+03,2.475470202713001072e+03
