nan,nan,nan,nan,nan,nan,nan,nan,nan,nan,nan,nan,nan,nan,1.232379249999999956e+03,1.179265249999999924e+03,1.069281999999999925e+03,1.042965750000000071e+03,1.050799250000000029e+03,1.027117025000000012e+03,9.850655749999998534e+02,9.155679000000000087e+02,8.978944999999999936e+02,8.600247999999999138e+02,8.644378749999998490e+02,8.722565249999998969e+02,7.988351999999999862e+02,7.776245000000000118e+02,7.429013000000001057e+02,7.039923000000001139e+02,7.088769499999999653e+02,6.654450249999999869e+02,5.453693000000000666e+02,4.855816499999999678e+02,5.019861250000000155e+02,5.161954749999999876e+02,4.794472499999999968e+02,4.310373250000000098e+02,4.107033500000000004e+02,4.266614749999999958e+02,4.189784500000000094e+02,4.134927749999999946e+02,4.311379999999999768e+02,4.003730999999999653e+02,3.515318249999999694e+02,3.066384749999999713e+02,2.848210000000000264e+02,2.841018000000000256e+02,2.760729999999999791e+02,2.794965250000000196e+02,3.138226500000000101e+02,3.020677249999999958e+02,2.806825499999999920e+02,2.725380250000000046e+02,2.526078000000000259e+02,2.461871500000000026e+02,2.183042999999999836e+02,2.186312250000000006e+02,2.449168750000000045e+02,2.560988499999999704e+02,2.661393749999999727e+02,2.509754749999999888e+02,2.293754749999999945e+02,2.226521250000000123e+02,2.368107249999999908e+02,2.488362750000000005e+02,2.419333749999999839e+02,2.291992749999999717e+02,2.118892000000000166e+02,2.066834999999999809e+02,1.998984999999999843e+02,1.785373999999999910e+02,1.734158000000000186e+02,1.583549250000000086e+02,1.345760749999999746e+02,1.289811249999999916e+02,1.294186750000000075e+02,1.326191750000000127e+02,1.343325499999999977e+02,1.352845250000000021e+02,1.403219000000000278e+02,1.357169499999999971e+02,1.277505250000000103e+02,1.393574749999999938e+02,1.498248749999999916e+02,1.586756499999999903e+02,1.700758749999999964e+02,1.789009250000000293e+02,1.867156500000000108e+02,1.852539250000000095e+02,2.009298000000000002e+02,2.295249750000000120e+02,2.553552500000000123e+02,2.900217250000000035e+02,3.262845250000000306e+02,3.626792500000000246e+02,3.518742750000000115e+02,3.453793749999999818e+02,3.969931749999999511e+02,4.291354499999999916e+02,4.645067000000000235e+02,4.961649250000000393e+02,5.007434500000000526e+02,5.290992250000000467e+02,5.800744250000000193e+02,5.925438750000000709e+02,6.121945249999999987e+02,6.564114749999999958e+02,6.332493249999999989e+02,6.495787249999999631e+02,7.611580750000000535e+02,8.468110249999999724e+02,8.801905749999999671e+02,8.828548249999998916e+02,8.914402000000001181e+02,9.715342749999999796e+02,1.098625750000000153e+03,1.209026749999999993e+03,1.240524750000000040e+03,1.254129750000000058e+03,1.286116999999999962e+03,1.279891499999999951e+03,1.307950250000000096e+03,1.345692749999999933e+03,1.381436500000000024e+03,1.446421500000000151e+03,1.514824249999999893e+03,1.536480000000000018e+03,1.581699749999999995e+03,1.671617750000000115e+03,1.704457750000000033e+03,1.719928499999999985e+03,1.745364749999999958e+03,nan,nan,nan,nan,nan,nan,nan,nan,nan,nan,nan,nan
nan,nan,nan,nan,nan,nan,nan,nan,nan,nan,nan,nan,nan,nan,1.335990749999999935e+03,1.294676500000000033e+03,1.165813499999999976e+03,1.047871200000000044e+03,1.029202700000000050e+03,1.073534249999999929e+03,1.086151249999999891e+03,1.056260324999999966e+03,1.062893574999999828e+03,1.004714399999999955e+03,9.825641499999999269e+02,9.802840000000001055e+02,9.177653500000000122e+02,8.274924250000000256e+02,6.795531250000000227e+02,5.793943249999999807e+02,5.619740749999999707e+02,5.658635249999999814e+02,4.981236000000000104e+02,4.288562999999999761e+02,4.245296000000000163e+02,4.705559000000000083e+02,4.575338249999999789e+02,4.397040000000000077e+02,4.490724999999999909e+02,4.217425999999999817e+02,3.927707749999999578e+02,4.002837000000000103e+02,4.199840749999999616e+02,4.100392499999999814e+02,3.930328000000000088e+02,3.491315749999999980e+02,3.061776500000000283e+02,3.005384250000000179e+02,2.785414749999999913e+02,2.605359500000000139e+02,2.831522250000000440e+02,2.858205500000000256e+02,2.675229500000000371e+02,2.467856500000000040e+02,2.269854250000000206e+02,2.271932250000000124e+02,2.142883999999999958e+02,2.178636250000000132e+02,2.308195999999999799e+02,2.315862750000000005e+02,2.467739250000000197e+02,2.408086500000000001e+02,2.178541500000000042e+02,2.143560250000000167e+02,2.323581749999999886e+02,2.435072999999999865e+02,2.391298249999999825e+02,2.301537749999999676e+02,2.216844499999999982e+02,2.142258500000000083e+02,1.950804250000000195e+02,1.787863250000000050e+02,1.707942000000000178e+02,1.515512500000000102e+02,1.360324499999999830e+02,1.303905500000000188e+02,1.269350749999999977e+02,1.249525500000000164e+02,1.233563500000000062e+02,1.258457999999999970e+02,1.356614999999999895e+02,1.326454750000000047e+02,1.343534750000000031e+02,1.468111499999999978e+02,1.482357499999999959e+02,1.555316000000000258e+02,1.710198250000000257e+02,1.841692749999999990e+02,1.906974000000000160e+02,1.932397750000000087e+02,2.104265000000000043e+02,2.339002000000000123e+02,2.566300999999999704e+02,2.852302750000000060e+02,3.205325750000000085e+02,3.609599249999999984e+02,3.779400499999999852e+02,3.925824749999999881e+02,4.386538499999999772e+02,4.519369500000000244e+02,4.584766250000000127e+02,4.887598499999999717e+02,4.991722750000000133e+02,5.394599499999999352e+02,5.715290499999999838e+02,5.726879250000000638e+02,6.098814999999999600e+02,6.865996999999999844e+02,7.081458999999999833e+02,6.983620750000000044e+02,7.594398750000000291e+02,8.824551249999999527e+02,9.859171249999999418e+02,1.002612649999999917e+03,1.031591599999999971e+03,1.106994200000000092e+03,1.201115999999999985e+03,1.269466249999999945e+03,1.278755249999999933e+03,1.278480999999999995e+03,1.272175750000000107e+03,1.257827250000000049e+03,1.269508249999999862e+03,1.290993500000000040e+03,1.311692500000000109e+03,1.348418000000000120e+03,1.420513249999999971e+03,1.499070749999999862e+03,1.604541250000000218e+03,1.717747999999999820e+03,1.743220499999999902e+03,1.744885749999999916e+03,nan,nan,nan,nan,nan,nan,nan,nan,nan,nan,nan,nan,nan
nan,nan,nan,nan,nan,nan,nan,nan,nan,nan,nan,nan,nan,1.477384000000000015e+03,1.333335000000000036e+03,1.288697750000000269e+03,1.239115749999999935e+03,1.052029774999999972e+03,9.460793999999999642e+02,9.496163749999999482e+02,1.032789999999999964e+03,1.114280999999999949e+03,1.079477274999999963e+03,1.008364975000000072e+03,9.861118000000000166e+02,9.589809249999999565e+02,8.749230750000000398e+02,7.317974750000000768e+02,5.993475750000000062e+02,5.077965000000000373e+02,4.555301749999999856e+02,4.495057249999999840e+02,4.147468249999999443e+02,3.804147499999999695e+02,3.781240500000000111e+02,4.109818500000000085e+02,4.078485249999999951e+02,3.888031750000000102e+02,3.789279250000000161e+02,3.731952249999999935e+02,3.728809749999999781e+02,3.750978250000000003e+02,3.776386499999999842e+02,3.883820499999999925e+02,4.098179000000000087e+02,3.923745499999999993e+02,3.537744749999999954e+02,3.392825500000000147e+02,3.147410750000000235e+02,2.822795250000000351e+02,2.612991749999999911e+02,2.550736750000000086e+02,2.675259250000000293e+02,2.470707999999999913e+02,2.151232500000000130e+02,2.064119499999999903e+02,2.030979499999999973e+02,2.129440250000000106e+02,2.158947499999999877e+02,2.165289999999999964e+02,2.287312750000000108e+02,2.216624249999999847e+02,2.016716250000000059e+02,2.121628249999999980e+02,2.355637249999999767e+02,2.381781250000000227e+02,2.359490499999999997e+02,2.319890000000000043e+02,2.259999249999999904e+02,2.185820750000000032e+02,2.021469250000000102e+02,1.895329499999999996e+02,1.741452000000000169e+02,1.552951250000000130e+02,1.423144000000000062e+02,1.308249999999999886e+02,1.279515999999999991e+02,1.264240000000000066e+02,1.233750500000000017e+02,1.191722000000000037e+02,1.231348500000000001e+02,1.252600999999999942e+02,1.419536249999999882e+02,1.612982749999999896e+02,1.526005250000000046e+02,1.511293749999999818e+02,1.634489000000000090e+02,1.727630500000000211e+02,1.741146499999999833e+02,1.807687999999999988e+02,2.006072750000000156e+02,2.225618000000000052e+02,2.468949250000000291e+02,2.696642749999999751e+02,2.964201749999999720e+02,3.298315000000000055e+02,3.712660250000000133e+02,4.144428749999999582e+02,4.558984499999999684e+02,4.897193750000000136e+02,5.037031749999999874e+02,5.167826249999999391e+02,5.462809749999998985e+02,5.947221749999999929e+02,6.345475250000000642e+02,6.706372499999999945e+02,6.965941750000000638e+02,7.027141500000000178e+02,7.502798750000000609e+02,8.321064750000000458e+02,9.050365249999999833e+02,9.926029000000000906e+02,1.067369249999999965e+03,1.078273999999999887e+03,1.121684999999999945e+03,1.208088749999999891e+03,1.247670999999999822e+03,1.250955249999999978e+03,1.254193499999999858e+03,1.254801500000000033e+03,1.246793750000000045e+03,1.248906250000000000e+03,1.253947999999999865e+03,1.260057749999999942e+03,1.270680000000000064e+03,1.293752999999999929e+03,1.372920749999999771e+03,1.490902250000000095e+03,1.591433250000000044e+03,1.668999749999999949e+03,1.722510500000000093e+03,1.755602499999999964e+03,nan,nan,nan,nan,nan,nan,nan,nan,nan,nan,nan,nan,nan
nan,nan,nan,nan,nan,nan,nan,nan,nan,nan,nan,nan,nan,1.446706000000000131e+03,1.278487249999999904e+03,1.159620999999999867e+03,1.087454050000000052e+03,9.730277999999999565e+02,8.676702749999999469e+02,8.292603749999999536e+02,9.250967499999999291e+02,9.768703750000000809e+02,9.167138750000000300e+02,8.945271999999999935e+02,8.965986749999999574e+02,8.349445249999999987e+02,7.015452999999999975e+02,6.698231749999999920e+02,6.993107250000000477e+02,5.891488500000000386e+02,4.699033000000000015e+02,4.515791750000000206e+02,4.365415249999999787e+02,4.071306999999999903e+02,3.848525000000000205e+02,4.032229999999999563e+02,4.128647750000000087e+02,4.042902000000000271e+02,3.690609249999999975e+02,3.349271999999999707e+02,3.468704749999999990e+02,3.398017750000000206e+02,3.361679000000000315e+02,3.696704000000000292e+02,3.937053750000000036e+02,3.913979499999999803e+02,3.674908000000000357e+02,3.591675749999999425e+02,3.573978749999999991e+02,3.151954500000000507e+02,2.597299500000000307e+02,2.352210000000000036e+02,2.396461249999999836e+02,2.347258749999999736e+02,2.259603749999999991e+02,2.185610999999999819e+02,2.072468250000000012e+02,2.031054500000000189e+02,2.007190500000000100e+02,2.095468750000000000e+02,2.165796499999999867e+02,2.113565249999999764e+02,2.006923500000000331e+02,2.005383499999999799e+02,2.166871499999999742e+02,2.250918250000000000e+02,2.265677750000000117e+02,2.252951500000000067e+02,2.223093749999999886e+02,2.164789499999999975e+02,2.041056250000000034e+02,1.984559250000000077e+02,1.818789000000000158e+02,1.614599500000000205e+02,1.527636750000000063e+02,1.393125249999999937e+02,1.292754499999999780e+02,1.266080000000000041e+02,1.237594500000000011e+02,1.210557249999999954e+02,1.195594750000000062e+02,1.181054000000000030e+02,1.368342250000000035e+02,1.582002750000000049e+02,1.494060000000000059e+02,1.436029499999999928e+02,1.501500499999999931e+02,1.512474249999999927e+02,1.513626999999999896e+02,1.664002249999999776e+02,1.927368999999999915e+02,2.192156250000000171e+02,2.472589749999999924e+02,2.717763249999999857e+02,2.912896499999999378e+02,3.174780499999999961e+02,3.568450500000000147e+02,4.032742250000000013e+02,4.508973999999999478e+02,4.957742749999999887e+02,5.274868999999999915e+02,5.534131499999999733e+02,5.923613749999999527e+02,6.332385000000000446e+02,6.764735500000000457e+02,7.310322999999999638e+02,7.635980250000000069e+02,7.604662000000000717e+02,7.982246999999999844e+02,9.067988749999999527e+02,9.909722750000000815e+02,1.037397825000000012e+03,1.090875749999999925e+03,1.122192749999999933e+03,1.148907250000000204e+03,1.186853749999999991e+03,1.212662249999999858e+03,1.215300250000000005e+03,1.218691749999999956e+03,1.233554499999999962e+03,1.243413750000000164e+03,1.253287249999999858e+03,1.256411249999999882e+03,1.257876499999999851e+03,1.262342499999999973e+03,1.277116749999999911e+03,1.336086999999999989e+03,1.426583750000000009e+03,1.495605750000000171e+03,1.545156999999999925e+03,1.615052999999999884e+03,1.692515750000000025e+03,1.756530749999999898e+03,1.805717499999999973e+03,nan,nan,nan,nan,nan,nan,nan,nan,nan,nan,nan
nan,nan,nan,nan,nan,nan,nan,nan,nan,nan,nan,nan,nan,1.366815250000000106e+03,1.259625750000000153e+03,1.173693749999999909e+03,1.080895050000000083e+03,1.015900724999999966e+03,9.713925749999999653e+02,9.126168000000000120e+02,8.725360000000000582e+02,8.103461500000000797e+02,7.333346000000000231e+02,7.743268749999999727e+02,7.790920750000000226e+02,7.179037250000000085e+02,7.394823499999999967e+02,8.048836250000000518e+02,8.236848250000000462e+02,6.949127250000000231e+02,5.468784249999999929e+02,5.220336250000000291e+02,5.105569250000000352e+02,4.859793999999999983e+02,4.550661999999999807e+02,4.585414749999999913e+02,4.656701500000000351e+02,4.468635249999999814e+02,3.887796250000000100e+02,3.327884750000000622e+02,3.363897000000000048e+02,3.327869999999999777e+02,3.346183250000000271e+02,3.655409000000000219e+02,3.864471500000000219e+02,3.763104499999999462e+02,3.602458749999999554e+02,3.612053249999999593e+02,3.563350750000000176e+02,3.232022500000000491e+02,2.721365749999999935e+02,2.510801500000000033e+02,2.505169000000000210e+02,2.429572500000000161e+02,2.344468249999999898e+02,2.249875749999999925e+02,2.036261500000000240e+02,1.871172750000000065e+02,1.868720000000000141e+02,1.985461750000000052e+02,2.104332749999999805e+02,2.113187999999999818e+02,2.047986249999999870e+02,1.877948000000000093e+02,1.894560749999999700e+02,2.019736499999999921e+02,2.121701249999999845e+02,2.205391250000000127e+02,2.150942749999999819e+02,2.132722500000000139e+02,2.098567250000000115e+02,1.973549999999999898e+02,1.772455500000000086e+02,1.597101250000000050e+02,1.539226749999999981e+02,1.471872749999999996e+02,1.374733750000000043e+02,1.324506750000000181e+02,1.260561999999999898e+02,1.214017249999999848e+02,1.205954749999999933e+02,1.181667999999999950e+02,1.295992750000000058e+02,1.402293499999999824e+02,1.331830500000000086e+02,1.384923750000000098e+02,1.516118749999999977e+02,1.591618250000000216e+02,1.694859999999999900e+02,1.890583249999999964e+02,2.169045500000000004e+02,2.438307000000000073e+02,2.675355000000000132e+02,2.909347999999999956e+02,3.160578749999999673e+02,3.431759499999999434e+02,3.680993999999999460e+02,4.082110749999999371e+02,4.617980499999999893e+02,5.029758499999999799e+02,5.414737000000000080e+02,5.892479500000000598e+02,6.366734000000000151e+02,6.751253249999999753e+02,7.239350500000000466e+02,7.872327500000000100e+02,8.212056000000000040e+02,8.215335249999999405e+02,8.478516500000000633e+02,9.202602500000000418e+02,9.840245999999999640e+02,1.035322075000000041e+03,1.093088999999999942e+03,1.127684749999999894e+03,1.148328749999999900e+03,1.175237500000000182e+03,1.196114000000000033e+03,1.203561749999999847e+03,1.208511750000000120e+03,1.227306000000000040e+03,1.247344749999999976e+03,1.253615749999999935e+03,1.253441000000000031e+03,1.255831999999999880e+03,1.264037499999999909e+03,1.280726750000000038e+03,1.310446750000000065e+03,1.362181000000000040e+03,1.433545250000000124e+03,1.505440750000000207e+03,1.568999000000000251e+03,1.636203500000000076e+03,1.713541749999999865e+03,1.816669749999999794e+03,nan,nan,nan,nan,nan,nan,nan,nan,nan,nan,nan
nan,nan,nan,nan,nan,nan,nan,nan,nan,nan,nan,nan,nan,1.370498499999999922e+03,1.337984750000000076e+03,1.301497749999999996e+03,1.205419499999999971e+03,1.169355749999999944e+03,1.137410249999999905e+03,1.104333799999999883e+03,1.025100249999999960e+03,9.150107749999999669e+02,7.968228249999999662e+02,7.239428249999999707e+02,7.232349249999999756e+02,7.769976500000000215e+02,9.197630249999999705e+02,8.979668750000000728e+02,7.708630250000001070e+02,6.912088250000000471e+02,5.784845500000000129e+02,5.424471249999999145e+02,5.365172499999999900e+02,5.062947500000000218e+02,4.756800000000000068e+02,4.728875250000000392e+02,4.635000000000000568e+02,4.335360750000000394e+02,3.911950499999999806e+02,3.445371749999999906e+02,3.242593500000000404e+02,3.275862750000000005e+02,3.551900750000000357e+02,3.797603750000000105e+02,3.893675749999999880e+02,3.748715750000000071e+02,3.652154750000000263e+02,3.695411000000000286e+02,3.390993250000000216e+02,2.933543750000000045e+02,2.631887500000000273e+02,2.562951750000000288e+02,2.564330499999999802e+02,2.413943500000000313e+02,2.202767999999999802e+02,1.985114499999999964e+02,1.896757499999999936e+02,1.896290500000000065e+02,1.832826749999999834e+02,1.838568000000000211e+02,1.954902249999999810e+02,1.955131250000000023e+02,1.935886500000000012e+02,1.878765499999999804e+02,1.847911750000000097e+02,1.900474499999999978e+02,1.996256250000000136e+02,2.065333500000000129e+02,2.058925000000000125e+02,2.060594250000000045e+02,2.083394499999999994e+02,2.005973000000000184e+02,1.851562749999999937e+02,1.790536000000000172e+02,1.701153250000000128e+02,1.662199749999999767e+02,1.571263999999999896e+02,1.420765499999999975e+02,1.339810249999999883e+02,1.268574749999999938e+02,1.217900999999999954e+02,1.194166249999999962e+02,1.273206999999999880e+02,1.297133999999999787e+02,1.237454749999999990e+02,1.353651749999999936e+02,1.584196499999999901e+02,1.772686250000000143e+02,1.913315499999999929e+02,2.119632000000000005e+02,2.389470749999999839e+02,2.648594249999999874e+02,2.876438499999999863e+02,3.056308499999999526e+02,3.329535500000000070e+02,3.686133000000000379e+02,3.950960000000000036e+02,4.297312000000000012e+02,4.845236750000000256e+02,5.288417749999999842e+02,5.643576249999999845e+02,6.062888249999999744e+02,6.425864249999999629e+02,6.911721250000000509e+02,7.590527500000000600e+02,8.346445999999999685e+02,8.870734750000000304e+02,9.115852999999999611e+02,9.415354500000000826e+02,9.784637999999999920e+02,1.024221974999999929e+03,1.074721500000000106e+03,1.114141249999999900e+03,1.138266750000000002e+03,1.154923250000000053e+03,1.174811749999999847e+03,1.197430499999999938e+03,1.208913500000000113e+03,1.211119249999999965e+03,1.225097999999999956e+03,1.241105749999999944e+03,1.243941749999999956e+03,1.245287500000000136e+03,1.252610750000000053e+03,1.267775000000000091e+03,1.284617500000000064e+03,1.304682749999999942e+03,1.362545499999999947e+03,1.440337500000000091e+03,1.512582750000000033e+03,1.576587499999999864e+03,1.625598250000000007e+03,1.695473500000000058e+03,1.792314499999999953e+03,nan,nan,nan,nan,nan,nan,nan,nan,nan,nan,nan
nan,nan,nan,nan,nan,nan,nan,nan,nan,nan,nan,nan,nan,1.503730250000000069e+03,1.478128500000000031e+03,1.396171250000000100e+03,1.342686250000000200e+03,1.335603500000000167e+03,1.275068500000000085e+03,1.298937750000000051e+03,1.264662000000000035e+03,1.093842749999999796e+03,8.910312000000000126e+02,7.761433999999999287e+02,8.968928249999999025e+02,1.021921124999999961e+03,1.067320249999999987e+03,9.770789499999999634e+02,7.667254499999999098e+02,6.489403250000000298e+02,5.622691499999999678e+02,5.140197500000000446e+02,5.234267250000000331e+02,4.991444999999999936e+02,4.596414500000000203e+02,4.615507499999999936e+02,4.791958750000000009e+02,4.645263499999999794e+02,4.112801499999999919e+02,3.424230249999999955e+02,3.069791500000000042e+02,3.109953750000000241e+02,3.479110500000000457e+02,3.704504999999999768e+02,3.882562249999999722e+02,3.865051499999999578e+02,3.512538749999999936e+02,3.426954250000000002e+02,3.078147999999999911e+02,2.557101999999999862e+02,2.391145249999999862e+02,2.306018249999999910e+02,2.181222500000000082e+02,2.095852500000000020e+02,2.055733500000000049e+02,2.010349999999999966e+02,2.054781250000000057e+02,2.084643999999999835e+02,1.955578250000000082e+02,1.763872250000000008e+02,1.683385250000000042e+02,1.708874500000000012e+02,1.756945750000000146e+02,1.784945250000000101e+02,1.775368500000000154e+02,1.810461250000000177e+02,1.871462999999999965e+02,1.872429000000000201e+02,1.922578000000000031e+02,1.928868250000000160e+02,1.981727000000000203e+02,2.065735499999999831e+02,1.993927750000000003e+02,1.985938000000000159e+02,1.979681999999999960e+02,1.942086499999999774e+02,1.779389500000000055e+02,1.516658499999999776e+02,1.394573000000000036e+02,1.343401000000000067e+02,1.267095750000000010e+02,1.203212249999999983e+02,1.206268499999999904e+02,1.208659249999999901e+02,1.249132249999999971e+02,1.330742000000000189e+02,1.559482749999999953e+02,1.820492999999999881e+02,1.967892999999999688e+02,2.199935499999999990e+02,2.465902499999999691e+02,2.696417000000000144e+02,2.911391750000000229e+02,3.116680249999999432e+02,3.406791499999999928e+02,3.760345250000000306e+02,4.200106999999999857e+02,4.694329999999999927e+02,5.206157000000000608e+02,5.686850000000000591e+02,6.045370250000000851e+02,6.219787999999999784e+02,6.426623749999998836e+02,7.025097749999999905e+02,7.784531499999999369e+02,8.778750250000000506e+02,9.600961999999999534e+02,9.941674000000000433e+02,1.024447325000000092e+03,1.051353000000000065e+03,1.072211999999999989e+03,1.096684999999999945e+03,1.119137749999999869e+03,1.136269249999999829e+03,1.152499749999999949e+03,1.169755499999999984e+03,1.192274499999999989e+03,1.205729249999999865e+03,1.210169499999999971e+03,1.219286000000000058e+03,1.226344000000000051e+03,1.230780750000000126e+03,1.240858999999999924e+03,1.255119500000000016e+03,1.274890249999999924e+03,1.294292249999999967e+03,1.319121499999999969e+03,1.383037249999999858e+03,1.455288750000000164e+03,1.514452000000000226e+03,1.565869999999999891e+03,1.605051500000000033e+03,1.663899750000000040e+03,1.735276000000000067e+03,1.788839999999999918e+03,nan,nan,nan,nan,nan,nan,nan,nan,nan,nan
nan,nan,nan,nan,nan,nan,nan,nan,nan,nan,nan,nan,nan,nan,1.592224000000000160e+03,1.530318999999999960e+03,1.563776499999999942e+03,1.491349749999999858e+03,1.290939499999999953e+03,1.251889499999999998e+03,1.206016200000000026e+03,1.046477499999999964e+03,8.650603499999999713e+02,8.163060249999999769e+02,1.056984224999999924e+03,1.183659499999999980e+03,1.137082249999999931e+03,1.063153175000000147e+03,8.625718249999999898e+02,6.759988749999999982e+02,5.781355499999999665e+02,5.193016749999999320e+02,5.104155000000000086e+02,5.036031249999999773e+02,4.763224000000000160e+02,4.705541000000000054e+02,5.001675250000000119e+02,4.946349250000000097e+02,4.457408499999999663e+02,3.720250499999999647e+02,3.231421499999999583e+02,3.048008750000000191e+02,3.040813749999999800e+02,3.254737749999999892e+02,3.434180499999999938e+02,3.545667000000000257e+02,3.372835999999999785e+02,2.992527999999999793e+02,2.603450249999999642e+02,2.375808749999999918e+02,2.300040500000000065e+02,2.301471249999999884e+02,2.220742500000000064e+02,2.211899000000000228e+02,2.301912500000000250e+02,2.294924999999999784e+02,2.276728750000000048e+02,2.163158750000000055e+02,1.995524000000000058e+02,1.815269249999999772e+02,1.731707000000000107e+02,1.694196249999999964e+02,1.625131499999999960e+02,1.632353249999999889e+02,1.629368000000000052e+02,1.656880500000000040e+02,1.717638749999999845e+02,1.752692999999999870e+02,1.770252249999999776e+02,1.835848500000000172e+02,1.941338750000000175e+02,1.989860749999999996e+02,1.963199250000000120e+02,1.933378749999999968e+02,1.966718000000000188e+02,1.988958750000000180e+02,1.882288500000000226e+02,1.619586500000000342e+02,1.408826750000000061e+02,1.352990750000000162e+02,1.299112749999999892e+02,1.219985749999999882e+02,1.156839749999999896e+02,1.192677999999999940e+02,1.332437500000000057e+02,1.396197000000000230e+02,1.552245750000000157e+02,1.717237749999999892e+02,1.882720500000000072e+02,2.217599749999999972e+02,2.500016249999999900e+02,2.705153750000000059e+02,2.936543500000000222e+02,3.180962750000000483e+02,3.601757750000000442e+02,4.069991249999999923e+02,4.493969999999999914e+02,4.897484000000000037e+02,5.405536500000000615e+02,6.014501250000000709e+02,6.401807750000000397e+02,6.524492749999999432e+02,6.712064000000000306e+02,7.260445999999999458e+02,8.092754999999999654e+02,8.978961500000000342e+02,9.812496249999999236e+02,1.032315749999999980e+03,1.052739749999999958e+03,1.077526500000000169e+03,1.085653749999999945e+03,1.095416749999999865e+03,1.109230250000000069e+03,1.122871499999999969e+03,1.139379000000000133e+03,1.152522750000000087e+03,1.176376749999999902e+03,1.195481749999999920e+03,1.201213250000000016e+03,1.210111750000000029e+03,1.218328999999999951e+03,1.229035499999999956e+03,1.245956249999999955e+03,1.265472499999999854e+03,1.287528749999999945e+03,1.311879249999999956e+03,1.347916749999999865e+03,1.393012999999999920e+03,1.450419000000000096e+03,1.515211749999999938e+03,1.557122249999999894e+03,1.592440499999999929e+03,1.642134749999999940e+03,1.706440499999999929e+03,1.762936249999999973e+03,1.892278000000000247e+03,nan,nan,nan,nan,nan,nan,nan,nan,nan
nan,nan,nan,nan,nan,nan,nan,nan,nan,nan,nan,nan,nan,nan,nan,1.659816500000000133e+03,1.588010499999999865e+03,1.432962749999999687e+03,1.245027749999999969e+03,1.136715999999999894e+03,1.075034450000000106e+03,9.717693000000000438e+02,8.555964249999999538e+02,8.346204249999999547e+02,9.815435499999999820e+02,1.095556199999999990e+03,1.114987000000000080e+03,1.086418750000000045e+03,9.521127749999999423e+02,7.729281250000000227e+02,6.415746749999999565e+02,5.582342750000000251e+02,5.053244250000000193e+02,4.747550999999999704e+02,4.745656250000000114e+02,4.681645750000000135e+02,4.636353000000000293e+02,4.596828749999999673e+02,4.420950249999999642e+02,3.848292250000000081e+02,3.657924249999999802e+02,3.699119249999999965e+02,3.249299750000000131e+02,3.042083749999999895e+02,2.867700750000000198e+02,2.755672250000000076e+02,2.827039250000000266e+02,2.713437000000000126e+02,2.652073500000000195e+02,2.704009000000000356e+02,2.669294750000000249e+02,2.654361249999999472e+02,2.588238749999999868e+02,2.465737750000000119e+02,2.353015500000000202e+02,2.291204250000000116e+02,2.296000249999999880e+02,2.261557000000000244e+02,2.123471750000000213e+02,1.976575499999999863e+02,1.923163749999999936e+02,1.838357000000000028e+02,1.730444999999999993e+02,1.633463500000000010e+02,1.540460999999999956e+02,1.545468999999999937e+02,1.589291499999999928e+02,1.604524250000000052e+02,1.606182000000000016e+02,1.681250000000000000e+02,1.756777999999999906e+02,1.786861499999999978e+02,1.792954750000000104e+02,1.732395500000000084e+02,1.733755000000000166e+02,1.756279749999999922e+02,1.751761250000000132e+02,1.692890749999999969e+02,1.495523249999999962e+02,1.348419250000000034e+02,1.302369249999999852e+02,1.228562000000000012e+02,1.157628249999999923e+02,1.214516500000000008e+02,1.413953250000000139e+02,1.574430250000000058e+02,1.696871499999999742e+02,1.760484250000000088e+02,1.846615999999999929e+02,2.167014749999999879e+02,2.576325749999999744e+02,2.913406249999999886e+02,3.195932750000000055e+02,3.460469000000000506e+02,3.903774499999999534e+02,4.292791999999999462e+02,4.533589749999999867e+02,4.859722749999999678e+02,5.454771250000000009e+02,6.087673999999999523e+02,6.472469499999999698e+02,6.815254750000000286e+02,7.046046000000000049e+02,7.741669500000000426e+02,8.632825000000000273e+02,8.979506250000000591e+02,9.673999000000000024e+02,1.038648750000000064e+03,1.056535750000000007e+03,1.069903999999999996e+03,1.072843750000000000e+03,1.079533500000000004e+03,1.087737750000000005e+03,1.098829999999999927e+03,1.118429250000000138e+03,1.135514750000000049e+03,1.165375000000000000e+03,1.196721750000000156e+03,1.204188999999999851e+03,1.207955249999999978e+03,1.218926750000000084e+03,1.233241750000000138e+03,1.251058499999999867e+03,1.272733749999999873e+03,1.298027999999999793e+03,1.326243500000000040e+03,1.370010249999999814e+03,1.414683250000000044e+03,1.453808250000000044e+03,1.508995000000000118e+03,1.559069250000000011e+03,1.597581999999999880e+03,1.642578500000000076e+03,1.702819500000000062e+03,1.756944750000000113e+03,1.836519250000000284e+03,1.909935750000000098e+03,nan,nan,nan,nan,nan,nan,nan,nan
nan,nan,nan,nan,nan,nan,nan,nan,nan,nan,nan,nan,nan,nan,nan,nan,1.559826249999999845e+03,1.399623999999999796e+03,1.323802249999999958e+03,1.275980000000000018e+03,1.175847499999999854e+03,9.961907750000000306e+02,8.831487750000000005e+02,9.379862249999999904e+02,1.017557675000000017e+03,1.077723449999999957e+03,1.104264000000000124e+03,1.076884000000000015e+03,9.974750249999999596e+02,8.396389249999999720e+02,6.932793249999999716e+02,5.795564749999999776e+02,4.979941500000000474e+02,4.602262499999999932e+02,4.858904749999999240e+02,4.733795749999999884e+02,4.392220750000000180e+02,4.331803499999999758e+02,4.140300999999999476e+02,3.824795499999999606e+02,3.813353500000000054e+02,4.204584999999999582e+02,3.939425499999999829e+02,3.483978000000000179e+02,3.217732000000000312e+02,2.897518499999999904e+02,2.817112750000000005e+02,2.841793250000000057e+02,3.138787500000000250e+02,3.246745249999999601e+02,3.079918999999999869e+02,2.911178499999999758e+02,2.705284749999999576e+02,2.555172750000000121e+02,2.335900499999999909e+02,2.213008250000000032e+02,2.145024999999999977e+02,2.112199249999999893e+02,2.135533999999999821e+02,2.061144249999999829e+02,1.923946749999999781e+02,1.852325000000000159e+02,1.814590750000000128e+02,1.638479749999999910e+02,1.502111500000000035e+02,1.496369500000000130e+02,1.492511250000000018e+02,1.482828499999999963e+02,1.485153999999999996e+02,1.502835000000000036e+02,1.511454249999999888e+02,1.554435499999999877e+02,1.566708250000000078e+02,1.519901250000000061e+02,1.498298249999999996e+02,1.471979749999999854e+02,1.487501500000000192e+02,1.550678499999999929e+02,1.471515749999999798e+02,1.340103249999999662e+02,1.294779750000000149e+02,1.212490750000000048e+02,1.146226499999999930e+02,1.224826500000000067e+02,1.491435250000000110e+02,1.743212249999999983e+02,1.884703749999999900e+02,2.002213249999999789e+02,2.047400999999999840e+02,2.352481000000000222e+02,2.864680000000000177e+02,3.288349499999999921e+02,3.656495749999999703e+02,3.985009000000000015e+02,4.351614250000000084e+02,4.515175500000000284e+02,4.644100999999999999e+02,5.028102249999999458e+02,5.532311250000000200e+02,5.778446000000000140e+02,5.917004749999999831e+02,6.066707250000000613e+02,6.395315749999999753e+02,7.453104499999999462e+02,8.433429750000000240e+02,8.746952749999999241e+02,9.151792500000000246e+02,9.623627999999999929e+02,9.881212749999999687e+02,1.011674024999999801e+03,1.030101675000000114e+03,1.037574299999999994e+03,1.022196574999999939e+03,1.044719025000000101e+03,1.096329499999999825e+03,1.123009000000000015e+03,1.160907999999999902e+03,1.201947000000000116e+03,1.208962250000000040e+03,1.208916000000000167e+03,1.222187249999999949e+03,1.236973750000000109e+03,1.256260250000000042e+03,1.284806000000000040e+03,1.320326250000000073e+03,1.349416999999999916e+03,1.380680000000000064e+03,1.435658500000000004e+03,1.491603500000000167e+03,1.540924749999999904e+03,1.597092750000000024e+03,1.647459749999999985e+03,1.712592249999999922e+03,1.772405750000000126e+03,1.789005750000000035e+03,1.811690500000000156e+03,1.861814499999999953e+03,nan,nan,nan,nan,nan,nan,nan,nan
nan,nan,nan,nan,nan,nan,nan,nan,nan,nan,nan,nan,nan,nan,nan,nan,nan,1.489298499999999876e+03,1.422196249999999964e+03,1.404269999999999982e+03,1.220495750000000044e+03,1.049078725000000077e+03,9.498828000000000884e+02,1.025951575000000048e+03,1.159723999999999933e+03,1.213965750000000071e+03,1.144340500000000020e+03,1.029565974999999980e+03,9.572696750000000065e+02,8.471577249999999140e+02,7.228823249999999234e+02,5.860199999999999818e+02,5.099740500000000338e+02,4.749368749999999295e+02,4.783851250000000164e+02,4.635887250000000108e+02,4.474710499999999911e+02,4.516660500000000411e+02,4.212974749999999631e+02,3.753726750000000152e+02,3.634288000000000238e+02,4.127732249999999681e+02,4.089043749999999591e+02,3.910425500000000056e+02,3.934918999999999869e+02,3.751631499999999733e+02,3.578100000000000023e+02,3.375535499999999729e+02,3.318244750000000067e+02,3.360062749999999596e+02,3.196925499999999829e+02,2.885168249999999830e+02,2.589436249999999973e+02,2.429663749999999993e+02,2.353749750000000063e+02,2.203611000000000217e+02,2.023228249999999946e+02,1.912691250000000025e+02,1.919213499999999897e+02,1.891439250000000243e+02,1.806792749999999899e+02,1.759356999999999971e+02,1.730908499999999890e+02,1.654365999999999985e+02,1.599808749999999975e+02,1.604107500000000073e+02,1.531822750000000042e+02,1.456282249999999863e+02,1.428890250000000037e+02,1.397435500000000275e+02,1.402535000000000025e+02,1.432719749999999976e+02,1.429627750000000219e+02,1.386767250000000047e+02,1.346506249999999909e+02,1.342985499999999774e+02,1.336601750000000095e+02,1.326993999999999971e+02,1.318460000000000036e+02,1.304506250000000023e+02,1.279489999999999981e+02,1.222362250000000046e+02,1.162480500000000063e+02,1.308969500000000039e+02,1.604241250000000036e+02,1.869180000000000064e+02,2.068275999999999897e+02,2.191734500000000025e+02,2.360113249999999994e+02,2.751489000000000260e+02,3.145611000000000104e+02,3.404598500000000172e+02,3.771069499999999834e+02,4.128605499999999324e+02,4.373795749999999884e+02,4.581349750000000540e+02,4.761630000000000678e+02,4.707554750000000467e+02,4.625076000000000249e+02,4.591168250000000057e+02,4.606767249999999763e+02,4.616404749999999808e+02,5.141739499999999907e+02,6.132551499999999578e+02,7.100845249999999851e+02,7.628562249999999949e+02,7.674361999999999853e+02,7.944037499999999454e+02,8.469186749999998938e+02,9.001025999999999385e+02,9.071237999999999602e+02,9.447320749999998952e+02,9.801108249999999771e+02,1.013400525000000016e+03,1.076196249999999964e+03,1.111010250000000042e+03,1.148978499999999940e+03,1.182146999999999935e+03,1.189030999999999949e+03,1.198158249999999953e+03,1.224313250000000153e+03,1.245794499999999971e+03,1.272633749999999964e+03,1.306162000000000035e+03,1.343464249999999993e+03,1.380103000000000065e+03,1.403296749999999975e+03,1.444300500000000056e+03,1.531399500000000216e+03,1.602562500000000000e+03,1.661081999999999880e+03,1.708734999999999900e+03,1.801140250000000151e+03,1.893614500000000135e+03,1.867965500000000020e+03,1.857476250000000164e+03,1.934503500000000258e+03,2.052731749999999920e+03,nan,nan,nan,nan,nan,nan,nan
nan,nan,nan,nan,nan,nan,nan,nan,nan,nan,nan,nan,nan,nan,nan,nan,nan,nan,1.511665500000000065e+03,1.447358499999999822e+03,1.267290750000000116e+03,1.087207750000000033e+03,1.084082724999999982e+03,1.214366975000000139e+03,1.258870750000000044e+03,1.227242249999999785e+03,1.092501500000000078e+03,9.833165249999999560e+02,8.966895500000000538e+02,7.891823249999999916e+02,7.114907000000000608e+02,5.845846000000000231e+02,5.046057250000000067e+02,4.813497000000000412e+02,4.684340750000000071e+02,4.613929249999999911e+02,4.621287249999999744e+02,4.631403999999999996e+02,4.082918499999999540e+02,3.402885999999999740e+02,3.329770500000000197e+02,3.452339499999999362e+02,3.368473500000000058e+02,3.618687999999999647e+02,4.038276250000000118e+02,3.886363999999999805e+02,3.688397749999999746e+02,3.680966000000000236e+02,3.460050749999999766e+02,3.407672499999999900e+02,3.146298499999999763e+02,2.839719499999999925e+02,2.633532500000000027e+02,2.377599999999999909e+02,2.330747250000000008e+02,2.209800999999999931e+02,2.088585250000000144e+02,2.007792750000000126e+02,1.863261999999999716e+02,1.789221249999999941e+02,1.814353249999999775e+02,1.855291249999999934e+02,1.857509499999999889e+02,1.821641500000000065e+02,1.793394999999999868e+02,1.794828999999999724e+02,1.720581249999999898e+02,1.575087999999999795e+02,1.465495750000000044e+02,1.383160750000000121e+02,1.353397500000000093e+02,1.361597249999999804e+02,1.337734250000000031e+02,1.291429499999999848e+02,1.263845249999999965e+02,1.257735500000000002e+02,1.250887249999999824e+02,1.232592999999999961e+02,1.210493500000000040e+02,1.206397249999999985e+02,1.212365999999999815e+02,1.216486250000000098e+02,1.180045999999999964e+02,1.256110999999999933e+02,1.435512500000000102e+02,1.711101749999999981e+02,2.012946499999999901e+02,2.182232750000000010e+02,2.366926499999999862e+02,2.421334999999999980e+02,2.427013249999999971e+02,2.687627250000000458e+02,3.067381750000000125e+02,3.313114499999999794e+02,3.438035999999999603e+02,3.612857000000000198e+02,3.748877249999999890e+02,3.540777249999999867e+02,3.298232749999999669e+02,3.348571999999999775e+02,3.534321249999999850e+02,3.805027000000000044e+02,4.257832750000000033e+02,4.748436249999999745e+02,5.440535250000000360e+02,6.035861250000000382e+02,6.230666250000000446e+02,6.507298000000000684e+02,7.017492250000000240e+02,7.523152750000000424e+02,7.598616250000000036e+02,8.276522250000000440e+02,9.049708249999999907e+02,9.314690500000000384e+02,1.013535475000000133e+03,1.095988250000000107e+03,1.130763750000000073e+03,1.132421249999999873e+03,1.135798250000000053e+03,1.167213250000000016e+03,1.212349999999999909e+03,1.261015750000000025e+03,1.305692500000000109e+03,1.335020500000000084e+03,1.362030500000000075e+03,1.400966750000000047e+03,1.436096750000000156e+03,1.467346749999999929e+03,1.546466499999999996e+03,1.634045999999999822e+03,1.732107499999999845e+03,1.817309749999999894e+03,1.909449749999999995e+03,1.996376749999999902e+03,1.954070750000000089e+03,1.927656250000000000e+03,2.011431500000000142e+03,2.199896999999999935e+03,nan,nan,nan,nan,nan,nan,nan
nan,nan,nan,nan,nan,nan,nan,nan,nan,nan,nan,nan,nan,nan,nan,nan,nan,nan,1.444251499999999851e+03,1.329025750000000016e+03,1.226009500000000116e+03,1.094626749999999902e+03,1.233068250000000035e+03,1.441424749999999904e+03,1.357924749999999904e+03,1.147862575000000106e+03,9.718011999999999944e+02,8.866062249999999949e+02,8.109147749999999633e+02,7.475443249999999580e+02,6.801612999999999829e+02,5.727145250000000942e+02,5.260606749999999465e+02,5.319598999999999478e+02,4.979532499999999686e+02,4.635030500000000302e+02,4.420118750000000318e+02,4.097272250000000327e+02,3.726060500000000388e+02,3.514582750000000146e+02,3.594651499999999942e+02,3.547725249999999733e+02,3.397594250000000216e+02,3.254594999999999914e+02,3.279296749999999747e+02,3.144076749999999834e+02,3.127322250000000281e+02,3.366597249999999804e+02,3.505460750000000303e+02,3.395423250000000053e+02,3.102655250000000251e+02,2.899397000000000162e+02,2.664170500000000175e+02,2.511456750000000113e+02,2.482274999999999920e+02,2.304221249999999941e+02,2.175313000000000159e+02,2.046429750000000070e+02,1.930764000000000067e+02,1.986805249999999887e+02,2.049519000000000233e+02,2.060154250000000218e+02,2.035711500000000171e+02,1.964368000000000052e+02,1.922776000000000067e+02,1.850876749999999902e+02,1.794053499999999985e+02,1.699749500000000069e+02,1.506121499999999855e+02,1.395495250000000169e+02,1.360835500000000025e+02,1.343561000000000263e+02,1.314124500000000069e+02,1.281047999999999831e+02,1.259110500000000030e+02,1.233182500000000061e+02,1.213677000000000135e+02,1.199215999999999980e+02,1.170594499999999982e+02,1.180755249999999990e+02,1.173769250000000000e+02,1.134984999999999928e+02,1.127925749999999994e+02,1.198696999999999946e+02,1.361272999999999911e+02,1.520233499999999935e+02,1.695305999999999926e+02,1.932527249999999981e+02,2.125864500000000135e+02,2.056865750000000048e+02,1.976940500000000043e+02,2.259886750000000006e+02,2.527653499999999838e+02,2.639984249999999975e+02,2.756394749999999476e+02,2.805075999999999681e+02,2.829372999999999934e+02,2.861567499999999882e+02,2.841943249999999921e+02,3.001673250000000053e+02,3.324539750000000140e+02,3.609507500000000277e+02,3.975701249999999618e+02,4.372201499999999896e+02,4.849943499999999403e+02,5.350829750000000331e+02,5.731369250000000193e+02,6.000191500000000815e+02,6.250541499999999360e+02,6.609022750000000315e+02,7.033729000000000724e+02,7.600578249999999798e+02,8.083664249999999356e+02,8.445826250000001210e+02,9.256200250000000551e+02,1.020862650000000144e+03,1.066628000000000156e+03,1.090499749999999949e+03,1.130632499999999936e+03,1.174517249999999876e+03,1.217695000000000164e+03,1.276219250000000102e+03,1.329480500000000120e+03,1.359528749999999945e+03,1.386490499999999884e+03,1.424015499999999975e+03,1.466748249999999871e+03,1.504881249999999909e+03,1.566356249999999818e+03,1.645818250000000035e+03,1.773010249999999814e+03,1.922302749999999833e+03,2.020883249999999862e+03,2.076026249999999891e+03,2.054603250000000116e+03,2.015512750000000096e+03,2.037404250000000047e+03,2.243836999999999989e+03,nan,nan,nan,nan,nan,nan,nan
nan,nan,nan,nan,nan,nan,nan,nan,nan,nan,nan,nan,nan,nan,nan,nan,nan,1.479527250000000095e+03,1.349645250000000033e+03,1.287207499999999982e+03,1.212384000000000015e+03,1.229719499999999925e+03,1.357189499999999953e+03,1.439797250000000076e+03,1.315262249999999995e+03,1.046536200000000008e+03,8.524083249999999907e+02,7.800100250000000415e+02,8.014130749999999352e+02,8.207407000000000608e+02,7.010122499999999945e+02,5.829549000000000660e+02,5.995875750000000153e+02,5.983105249999999842e+02,5.080261249999999222e+02,4.481979999999999791e+02,4.308563749999999573e+02,3.883057499999999891e+02,3.605959499999999593e+02,3.956143500000000017e+02,4.381081500000000233e+02,4.311683749999999691e+02,3.853895499999999856e+02,3.177514249999999834e+02,2.885661499999999933e+02,2.733864499999999680e+02,2.707318500000000085e+02,2.973543999999999983e+02,3.153879249999999956e+02,3.154034750000000145e+02,3.091294750000000136e+02,2.875473250000000007e+02,2.593233500000000049e+02,2.546865999999999985e+02,2.510307499999999834e+02,2.282612749999999835e+02,2.095303000000000111e+02,2.072509000000000015e+02,2.083708499999999901e+02,2.073255500000000211e+02,2.016815500000000156e+02,1.897110999999999876e+02,1.828982750000000124e+02,1.767521250000000066e+02,1.722746999999999957e+02,1.657098750000000109e+02,1.608689249999999902e+02,1.570927750000000174e+02,1.487339999999999804e+02,1.476880749999999978e+02,1.478924749999999904e+02,1.423513750000000186e+02,1.362286499999999876e+02,1.358154749999999922e+02,1.345509999999999877e+02,1.321385000000000218e+02,1.312505749999999978e+02,1.284259250000000065e+02,1.314935749999999928e+02,1.427072749999999814e+02,1.349727750000000128e+02,1.144082999999999970e+02,1.086278250000000014e+02,1.195056749999999965e+02,1.467617999999999938e+02,1.645063250000000039e+02,1.744362749999999949e+02,1.953550500000000056e+02,2.133432750000000055e+02,2.223108500000000163e+02,2.321138250000000198e+02,2.448239750000000186e+02,2.532899249999999824e+02,2.658450750000000085e+02,2.779194249999999897e+02,2.811628749999999854e+02,2.847982000000000085e+02,2.915544500000000312e+02,2.928895750000000362e+02,3.096170000000000186e+02,3.404023750000000064e+02,3.643921250000000214e+02,4.006976250000000164e+02,4.467411499999999478e+02,4.894465500000000020e+02,5.315614249999999856e+02,5.657193250000000262e+02,5.869484000000001060e+02,6.080813000000000557e+02,6.440362499999999955e+02,6.978432000000000244e+02,7.514429499999999962e+02,8.025513750000000073e+02,8.481511000000000422e+02,8.920106000000000677e+02,9.496375749999999698e+02,1.005248025000000098e+03,1.069365250000000060e+03,1.139941000000000031e+03,1.188254749999999831e+03,1.220763249999999971e+03,1.260345249999999851e+03,1.315810999999999922e+03,1.362125750000000153e+03,1.395243500000000040e+03,1.432128999999999905e+03,1.480971749999999929e+03,1.540589500000000044e+03,1.609723500000000058e+03,1.691799250000000029e+03,1.809111499999999978e+03,1.914982500000000073e+03,2.016392249999999876e+03,2.154053499999999985e+03,2.211009250000000065e+03,2.159581000000000131e+03,2.119822999999999865e+03,2.237551500000000033e+03,nan,nan,nan,nan,nan,nan,nan
nan,nan,nan,nan,nan,nan,nan,nan,nan,nan,nan,nan,nan,nan,nan,nan,nan,1.485191500000000133e+03,1.415779500000000098e+03,1.456603000000000065e+03,1.406154749999999694e+03,1.425854999999999791e+03,1.474862250000000131e+03,1.365170250000000124e+03,1.203432999999999993e+03,1.019827449999999999e+03,8.688120999999999867e+02,8.106490999999999758e+02,8.742863999999999578e+02,8.838622250000000804e+02,7.248917999999999893e+02,6.067457000000000562e+02,6.226232999999999720e+02,6.285776499999999487e+02,5.358181999999999334e+02,4.784777750000000083e+02,4.754434999999999718e+02,4.286056499999999687e+02,3.948256999999999834e+02,4.394987249999999790e+02,4.726652500000000146e+02,4.422596749999999588e+02,3.854585749999999962e+02,3.484207750000000487e+02,3.274224000000000387e+02,2.876137999999999693e+02,2.616956000000000131e+02,2.582326749999999720e+02,2.705496249999999918e+02,2.908148500000000354e+02,2.908949250000000006e+02,2.729289499999999862e+02,2.611762499999999818e+02,2.581382249999999772e+02,2.416902249999999981e+02,2.228250499999999761e+02,2.122803000000000111e+02,2.163472250000000088e+02,2.118009500000000003e+02,1.930779750000000092e+02,1.786599999999999966e+02,1.685139499999999941e+02,1.649897500000000150e+02,1.612462500000000034e+02,1.590104749999999854e+02,1.537777000000000100e+02,1.492770750000000248e+02,1.525314250000000129e+02,1.588984999999999843e+02,1.616404500000000155e+02,1.549790999999999883e+02,1.485828999999999951e+02,1.494269749999999988e+02,1.485218000000000131e+02,1.431540999999999997e+02,1.402165750000000060e+02,1.407266000000000190e+02,1.432390499999999918e+02,1.543648249999999962e+02,1.696596999999999866e+02,1.660206000000000017e+02,1.324496249999999975e+02,1.085785750000000007e+02,1.110076250000000044e+02,1.294408750000000055e+02,1.585975999999999999e+02,1.838493750000000091e+02,2.207423249999999939e+02,2.572802500000000236e+02,2.628052000000000135e+02,2.553949000000000069e+02,2.516215500000000134e+02,2.567824499999999830e+02,2.700749499999999443e+02,2.797743750000000205e+02,2.902520250000000033e+02,3.012399500000000216e+02,3.075583500000000186e+02,3.156947499999999991e+02,3.335249999999999773e+02,3.551111999999999966e+02,3.735377999999999474e+02,3.872428499999999758e+02,4.203879750000000399e+02,4.767918000000000234e+02,5.204024500000000444e+02,5.540550749999999880e+02,5.855659000000000560e+02,6.128449000000000524e+02,6.599872000000000298e+02,7.217994000000001051e+02,7.700714249999999765e+02,8.134889499999999316e+02,8.686086249999999609e+02,9.142752000000000407e+02,9.544306000000000267e+02,1.010168524999999931e+03,1.063256000000000085e+03,1.126426000000000158e+03,1.184554249999999911e+03,1.216368749999999864e+03,1.250421249999999873e+03,1.299451750000000175e+03,1.341026250000000118e+03,1.385422499999999900e+03,1.448544499999999971e+03,1.492450250000000096e+03,1.549905500000000075e+03,1.644559500000000071e+03,1.764343500000000176e+03,1.866671500000000151e+03,1.943485249999999951e+03,1.998065000000000055e+03,2.177737000000000080e+03,2.385378999999999905e+03,2.324063250000000153e+03,2.253415750000000116e+03,2.379943249999999807e+03,nan,nan,nan,nan,nan,nan,nan
nan,nan,nan,nan,nan,nan,nan,nan,nan,nan,nan,nan,nan,nan,nan,nan,nan,1.604865999999999985e+03,1.496100500000000011e+03,1.570763249999999971e+03,1.588127750000000106e+03,1.567958749999999782e+03,1.543125499999999874e+03,1.349137999999999920e+03,1.173576250000000073e+03,1.059308575000000019e+03,1.003966974999999934e+03,1.008535750000000007e+03,9.860763499999999340e+02,8.667732249999999112e+02,7.155091249999999263e+02,6.420438750000000709e+02,5.932714499999999589e+02,5.592077000000000453e+02,5.045850249999999733e+02,4.522804249999999797e+02,4.363651749999999652e+02,4.134223999999999819e+02,4.186173749999999814e+02,4.595729249999999979e+02,4.759296499999999810e+02,4.438021999999999707e+02,3.922052250000000413e+02,3.598066000000000031e+02,3.380864249999999629e+02,3.076566500000000133e+02,2.798399499999999875e+02,2.542570499999999925e+02,2.444402499999999918e+02,2.513645500000000084e+02,2.630107750000000237e+02,2.610257000000000289e+02,2.525313249999999812e+02,2.489716499999999826e+02,2.343971750000000043e+02,2.209421000000000106e+02,2.160330750000000251e+02,2.050657249999999863e+02,1.934699999999999989e+02,1.842624000000000137e+02,1.830401499999999828e+02,1.878411750000000211e+02,1.852287499999999909e+02,1.783008749999999907e+02,1.732452000000000112e+02,1.650807250000000010e+02,1.605424249999999802e+02,1.697759250000000009e+02,1.745430250000000001e+02,1.667619750000000067e+02,1.537143250000000023e+02,1.498385250000000042e+02,1.605823500000000195e+02,1.650445750000000089e+02,1.587526500000000169e+02,1.548300500000000284e+02,1.525051750000000084e+02,1.597298749999999927e+02,1.744451750000000061e+02,1.799868749999999977e+02,1.635379749999999888e+02,1.282667999999999893e+02,1.084560250000000110e+02,1.099895499999999942e+02,1.265164249999999981e+02,1.767517250000000217e+02,2.320316000000000258e+02,2.672197249999999826e+02,2.885361500000000206e+02,2.916685499999999820e+02,2.856155499999999847e+02,2.790937999999999874e+02,2.814362499999999727e+02,2.880132249999999772e+02,2.901993750000000318e+02,2.975735500000000116e+02,3.092449000000000296e+02,3.195882500000000164e+02,3.313166749999999752e+02,3.358208999999999946e+02,3.599746499999999969e+02,3.978639999999999759e+02,4.093205500000000256e+02,4.298100249999999960e+02,4.780636749999999893e+02,5.166564250000000129e+02,5.464937500000000909e+02,5.936008749999999736e+02,6.418369000000000142e+02,7.079251000000000431e+02,7.738177000000000589e+02,8.153250250000000960e+02,8.603401999999999816e+02,9.264065249999999878e+02,9.835288999999999078e+02,9.904582500000000209e+02,1.004765575000000013e+03,1.044076250000000073e+03,1.103724750000000085e+03,1.181113499999999931e+03,1.220371000000000095e+03,1.252653250000000071e+03,1.299359249999999975e+03,1.327312000000000126e+03,1.391299999999999955e+03,1.499107250000000022e+03,1.546708750000000009e+03,1.593549750000000131e+03,1.723434000000000196e+03,1.872119999999999891e+03,1.951571750000000065e+03,1.985387000000000171e+03,2.026769249999999829e+03,2.124076500000000124e+03,2.299141250000000127e+03,2.336172250000000076e+03,2.360905750000000353e+03,2.631945249999999760e+03,nan,nan,nan,nan,nan,nan,nan
nan,nan,nan,nan,nan,nan,nan,nan,nan,nan,nan,nan,nan,nan,nan,nan,nan,1.825465750000000298e+03,1.635844000000000051e+03,1.674987249999999904e+03,1.746642749999999978e+03,1.711333249999999907e+03,1.596134000000000015e+03,1.415883000000000038e+03,1.305690749999999980e+03,1.235029749999999922e+03,1.195525499999999965e+03,1.195210250000000087e+03,1.065036100000000033e+03,8.934695749999998498e+02,8.027224249999999302e+02,7.277776999999999816e+02,5.939701750000000402e+02,5.117500000000000000e+02,4.922505499999999756e+02,4.443451000000000022e+02,4.012597250000000031e+02,3.943469499999999925e+02,4.047527000000000044e+02,4.343988250000000448e+02,4.503061999999999898e+02,4.019977999999999838e+02,3.576109999999999900e+02,3.359796999999999798e+02,3.154594499999999471e+02,2.943980999999999995e+02,2.805434750000000008e+02,2.728160500000000184e+02,2.605421999999999798e+02,2.385465499999999679e+02,2.443869500000000130e+02,2.570814250000000243e+02,2.418754500000000007e+02,2.364519999999999982e+02,2.238450750000000085e+02,2.084000499999999931e+02,2.002777750000000196e+02,1.896790249999999673e+02,1.858424749999999790e+02,1.895751750000000015e+02,2.018468750000000114e+02,2.045540499999999895e+02,1.981950750000000028e+02,1.979479000000000042e+02,1.920025500000000136e+02,1.772472499999999798e+02,1.772216249999999889e+02,1.834555499999999881e+02,1.793083750000000123e+02,1.665763499999999624e+02,1.533968249999999784e+02,1.556240999999999985e+02,1.665636000000000081e+02,1.710601749999999868e+02,1.733777000000000044e+02,1.743084999999999809e+02,1.732127000000000123e+02,1.827986999999999966e+02,1.851920750000000169e+02,1.630415500000000009e+02,1.283034749999999917e+02,1.098691000000000031e+02,1.114108249999999884e+02,1.287117749999999887e+02,1.626581249999999841e+02,2.150948500000000081e+02,2.434551749999999970e+02,2.348043999999999869e+02,2.239698750000000018e+02,2.196015749999999969e+02,2.301307500000000061e+02,2.439285250000000360e+02,2.651829999999999927e+02,2.890041750000000320e+02,3.008914250000000266e+02,3.101289249999999811e+02,3.199759750000000054e+02,3.330396499999999946e+02,3.541623500000000035e+02,3.623730499999999779e+02,3.861901500000000169e+02,4.281997000000000071e+02,4.467286000000000286e+02,4.563502500000000168e+02,4.820504999999999995e+02,5.196147250000000213e+02,5.491322000000000116e+02,5.923315749999999298e+02,6.449840500000000247e+02,6.992369750000000295e+02,7.664834250000000111e+02,8.354023749999998927e+02,9.083826500000000124e+02,9.882814000000000760e+02,1.055894749999999931e+03,1.037486574999999903e+03,1.000434325000000058e+03,1.020755249999999933e+03,1.062166999999999916e+03,1.142524249999999938e+03,1.198581749999999829e+03,1.247914749999999913e+03,1.324409249999999929e+03,1.363547250000000076e+03,1.423206000000000131e+03,1.527046000000000049e+03,1.595521750000000111e+03,1.658432749999999942e+03,1.831806749999999965e+03,2.016779250000000047e+03,2.082551500000000033e+03,2.026832999999999856e+03,2.111342000000000098e+03,2.242805250000000342e+03,2.255682249999999840e+03,2.341015499999999975e+03,2.504639000000000124e+03,2.746620750000000044e+03,nan,nan,nan,nan,nan,nan,nan
nan,nan,nan,nan,nan,nan,nan,nan,nan,nan,nan,nan,nan,nan,nan,nan,nan,1.977989250000000084e+03,1.851965499999999793e+03,1.771772000000000162e+03,1.738764000000000124e+03,1.709307749999999942e+03,1.633045250000000124e+03,1.538728000000000065e+03,1.471239000000000033e+03,1.364246499999999969e+03,1.271286749999999984e+03,1.206397750000000087e+03,1.010773049999999898e+03,8.525506499999999050e+02,7.858256999999998698e+02,7.273521499999999378e+02,6.326622749999999087e+02,5.559976249999999709e+02,5.445469749999999749e+02,5.012437749999999710e+02,4.172445000000000164e+02,3.712918500000000108e+02,3.598706250000000182e+02,3.712375499999999988e+02,3.727765499999999861e+02,3.325699999999999932e+02,3.112057499999999663e+02,3.086611750000000143e+02,2.891729500000000144e+02,2.674841499999999996e+02,2.614532250000000317e+02,2.555581999999999994e+02,2.563216499999999769e+02,2.428490999999999929e+02,2.248942499999999995e+02,2.272387499999999818e+02,2.176738000000000000e+02,2.115036000000000058e+02,2.007050999999999874e+02,1.893248499999999979e+02,1.932549000000000206e+02,1.922659000000000162e+02,1.891530250000000137e+02,1.969723000000000184e+02,2.123448999999999955e+02,2.121347999999999843e+02,2.088013000000000261e+02,2.094690499999999815e+02,1.962062750000000051e+02,1.813530499999999961e+02,1.898495249999999999e+02,1.929196000000000026e+02,1.773955500000000143e+02,1.689250000000000114e+02,1.636165000000000020e+02,1.695728500000000167e+02,1.746519499999999994e+02,1.706798000000000002e+02,1.822079750000000047e+02,1.900104749999999854e+02,1.967765999999999735e+02,2.075523249999999962e+02,1.789004249999999843e+02,1.295819749999999999e+02,1.061762250000000023e+02,1.114970999999999890e+02,1.306494749999999954e+02,1.642508750000000077e+02,1.842717749999999910e+02,1.808824250000000120e+02,1.636004749999999888e+02,1.488142249999999933e+02,1.487689000000000021e+02,1.524437499999999943e+02,1.673218249999999898e+02,1.924706750000000000e+02,2.231972499999999968e+02,2.636838750000000005e+02,3.037884250000000179e+02,3.341380000000000337e+02,3.483828250000000253e+02,3.626199000000000296e+02,3.899886000000000195e+02,4.092591500000000337e+02,4.218521750000000452e+02,4.387055250000000228e+02,4.461371250000000259e+02,4.320985500000000457e+02,4.541898750000000291e+02,5.123524250000000393e+02,5.533565750000000207e+02,5.897554749999999331e+02,6.207061750000000302e+02,6.612496750000000247e+02,7.355706500000001142e+02,8.148675499999999374e+02,9.058986249999999245e+02,9.972855749999999944e+02,1.051533750000000055e+03,1.056357250000000022e+03,1.046317500000000109e+03,1.050954749999999876e+03,1.092181250000000091e+03,1.171140499999999975e+03,1.238985999999999876e+03,1.306015000000000100e+03,1.359231500000000096e+03,1.408072249999999940e+03,1.470423750000000155e+03,1.539783500000000004e+03,1.627550500000000056e+03,1.719119000000000142e+03,1.880464999999999691e+03,2.065896749999999884e+03,2.184447250000000167e+03,2.175801500000000033e+03,2.206839000000000397e+03,2.368436749999999847e+03,2.451922249999999622e+03,2.477979249999999865e+03,2.558433250000000044e+03,2.664164999999999964e+03,nan,nan,nan,nan,nan,nan,nan
nan,nan,nan,nan,nan,nan,nan,nan,nan,nan,nan,nan,nan,nan,nan,nan,2.139224749999999858e+03,2.098027250000000095e+03,2.057270999999999731e+03,1.849049250000000029e+03,1.652354249999999865e+03,1.576906750000000102e+03,1.599431250000000091e+03,1.587328749999999900e+03,1.474851249999999936e+03,1.317407249999999976e+03,1.207137499999999818e+03,1.123988349999999855e+03,9.466741250000000036e+02,8.312266000000000759e+02,7.264120749999999589e+02,6.505892499999999927e+02,6.143674999999999500e+02,5.398850750000000289e+02,5.059074000000000524e+02,4.690112750000000688e+02,3.947509749999999826e+02,3.435961000000000354e+02,3.394288999999999987e+02,3.424131500000000301e+02,3.270954749999999649e+02,3.179905499999999847e+02,3.108049750000000131e+02,2.938847749999999905e+02,2.766246250000000373e+02,2.695518000000000143e+02,2.613223750000000223e+02,2.542985749999999996e+02,2.507860499999999888e+02,2.469216250000000059e+02,2.321287250000000313e+02,2.144688500000000033e+02,2.094764499999999998e+02,2.053401250000000005e+02,1.981628249999999980e+02,1.935921749999999975e+02,2.123755749999999978e+02,2.074228249999999889e+02,1.916450500000000261e+02,2.067541249999999877e+02,2.193401250000000005e+02,2.166127500000000055e+02,2.084701749999999834e+02,1.976603749999999877e+02,1.938184249999999906e+02,1.965042750000000069e+02,2.005744750000000067e+02,1.937438999999999965e+02,1.733738000000000170e+02,1.729844750000000033e+02,1.826604250000000036e+02,1.820894000000000119e+02,1.786953750000000127e+02,1.835266000000000020e+02,1.993013250000000198e+02,2.051519000000000119e+02,2.022650999999999897e+02,1.935986249999999984e+02,1.519886000000000195e+02,1.124692000000000007e+02,1.061598249999999979e+02,1.184211750000000052e+02,1.449153000000000020e+02,1.664309499999999957e+02,1.546157499999999914e+02,1.279887250000000023e+02,1.266546249999999958e+02,1.324382750000000044e+02,1.390550749999999880e+02,1.534150999999999954e+02,1.702365999999999815e+02,1.913851250000000164e+02,2.109316749999999843e+02,2.414498749999999916e+02,2.904841000000000122e+02,3.683466999999999985e+02,3.995089750000000208e+02,3.969186500000000137e+02,4.259503500000000145e+02,4.522039750000000140e+02,4.520275750000000130e+02,4.505447249999999713e+02,4.558817249999999603e+02,4.425228250000000116e+02,4.654056499999999801e+02,5.154610500000000002e+02,5.476357250000000931e+02,5.595283749999999827e+02,5.773630499999999302e+02,6.530584249999999429e+02,7.343317250000000058e+02,7.988850000000001046e+02,8.943649749999999585e+02,9.718767000000000280e+02,1.009425749999999994e+03,1.040101750000000038e+03,1.085444250000000011e+03,1.103026749999999993e+03,1.149451250000000073e+03,1.232413749999999936e+03,1.286529499999999871e+03,1.344689249999999902e+03,1.392875749999999925e+03,1.456448499999999967e+03,1.518104250000000093e+03,1.564913750000000164e+03,1.650495500000000220e+03,1.777670749999999998e+03,1.919592499999999973e+03,2.072141749999999774e+03,2.249520250000000033e+03,2.329108249999999771e+03,2.314604000000000269e+03,2.391816749999999956e+03,2.462300249999999778e+03,2.434849000000000160e+03,2.437182250000000295e+03,2.539100749999999607e+03,nan,nan,nan,nan,nan,nan,nan
nan,nan,nan,nan,nan,nan,nan,nan,nan,nan,nan,nan,nan,nan,nan,1.838218000000000075e+03,1.960435500000000047e+03,2.035277500000000146e+03,2.054269500000000335e+03,1.915395250000000033e+03,1.713810750000000098e+03,1.556726249999999936e+03,1.467061999999999898e+03,1.438806250000000091e+03,1.348730999999999995e+03,1.236335249999999860e+03,1.183931749999999965e+03,1.050831725000000006e+03,9.056413499999999885e+02,8.642951749999999720e+02,7.474967749999999569e+02,6.113614000000000033e+02,5.601785750000000235e+02,5.221689249999999447e+02,4.640758749999999964e+02,4.508369000000000142e+02,4.349775000000000205e+02,3.723155250000000365e+02,3.411704750000000104e+02,3.607427000000000135e+02,3.680426249999999868e+02,3.693159999999999741e+02,3.543538249999999721e+02,3.190275249999999687e+02,2.969289999999999736e+02,2.791446250000000191e+02,2.708159999999999741e+02,2.822244499999999903e+02,2.820085249999999633e+02,2.626861250000000041e+02,2.470160250000000133e+02,2.355510749999999973e+02,2.320643750000000125e+02,2.204973750000000052e+02,2.090488750000000095e+02,2.174731500000000040e+02,2.248082750000000090e+02,2.094034249999999986e+02,2.001791000000000054e+02,2.215991750000000025e+02,2.294741000000000213e+02,2.135567750000000160e+02,2.005235250000000065e+02,1.968782249999999863e+02,2.091164749999999799e+02,2.150945250000000044e+02,2.057077250000000106e+02,1.893007000000000062e+02,1.719246500000000140e+02,1.721142499999999984e+02,1.859515499999999975e+02,1.870975999999999999e+02,1.858994000000000142e+02,1.990883499999999913e+02,2.144435000000000002e+02,2.010068749999999795e+02,1.712280750000000182e+02,1.486434500000000014e+02,1.236220249999999794e+02,1.091021999999999963e+02,1.090411999999999892e+02,1.148510249999999928e+02,1.376440749999999866e+02,1.423603999999999985e+02,1.273130250000000103e+02,1.281329499999999939e+02,1.313903499999999838e+02,1.399220500000000129e+02,1.545213499999999840e+02,1.668091749999999820e+02,1.805810999999999922e+02,1.953143249999999966e+02,2.117190749999999753e+02,2.371961499999999887e+02,2.807645749999999794e+02,3.662782500000000141e+02,4.095455000000000041e+02,4.171122500000000173e+02,4.636557249999999613e+02,5.252144499999999425e+02,5.282940749999999070e+02,4.818531749999999647e+02,4.737753749999999968e+02,5.080315499999999815e+02,5.383441500000000133e+02,5.481417249999999513e+02,5.655388749999999618e+02,5.960633000000000266e+02,5.970013999999999896e+02,6.223182000000000471e+02,7.035266249999999673e+02,7.697283499999999776e+02,8.685940500000000384e+02,9.500663250000000062e+02,9.981454000000001088e+02,1.059410750000000007e+03,1.117829000000000178e+03,1.171420749999999998e+03,1.223197000000000116e+03,1.275905749999999898e+03,1.316140499999999975e+03,1.375327499999999873e+03,1.458871750000000020e+03,1.530476750000000038e+03,1.574111499999999978e+03,1.605279250000000047e+03,1.688381250000000136e+03,1.826983750000000100e+03,1.943794249999999920e+03,2.052767249999999876e+03,2.216589750000000095e+03,2.375512250000000222e+03,2.480262000000000171e+03,2.483160249999999905e+03,2.334237000000000080e+03,2.273581250000000182e+03,2.320439000000000306e+03,2.440944500000000062e+03,nan,nan,nan,nan,nan,nan,nan
nan,nan,nan,nan,nan,nan,nan,nan,nan,nan,nan,nan,nan,nan,nan,1.573731250000000045e+03,1.639302500000000009e+03,1.706768250000000080e+03,1.764694250000000011e+03,1.818992499999999836e+03,1.771504500000000007e+03,1.604679750000000013e+03,1.439811500000000024e+03,1.355267499999999927e+03,1.257257250000000113e+03,1.120079074999999875e+03,1.083274324999999862e+03,9.808247999999999820e+02,8.636570249999999760e+02,8.007480500000000347e+02,7.324111000000000331e+02,6.529223500000000513e+02,5.610662499999999682e+02,5.404640500000000429e+02,5.076684249999999565e+02,4.950888000000000488e+02,4.839313750000000027e+02,4.075473000000000070e+02,3.573575000000000159e+02,3.889325499999999920e+02,4.025668749999999818e+02,4.016125499999999988e+02,3.923499499999999784e+02,3.457014249999999720e+02,3.247355749999999830e+02,3.053433750000000373e+02,2.877371249999999918e+02,2.897323499999999967e+02,2.831003249999999980e+02,2.666922250000000076e+02,2.464816000000000145e+02,2.387575250000000153e+02,2.360968499999999892e+02,2.221743999999999915e+02,2.177934500000000071e+02,2.266617750000000058e+02,2.180886249999999791e+02,2.087167249999999967e+02,2.140684250000000191e+02,2.258531749999999931e+02,2.267021249999999952e+02,2.148327499999999759e+02,2.141324499999999773e+02,2.183195249999999987e+02,2.130968499999999892e+02,2.065418999999999983e+02,2.001471750000000043e+02,1.876280000000000143e+02,1.746319250000000238e+02,1.754483250000000112e+02,1.851178999999999633e+02,1.885005249999999819e+02,1.970341999999999985e+02,2.101929249999999740e+02,2.063536499999999876e+02,1.720072999999999865e+02,1.480934500000000185e+02,1.349227250000000140e+02,1.185229000000000070e+02,1.117347000000000037e+02,1.049793999999999983e+02,1.023746749999999963e+02,1.184442749999999762e+02,1.302289499999999975e+02,1.335934750000000122e+02,1.446062999999999761e+02,1.498464000000000169e+02,1.579842250000000092e+02,1.725088000000000079e+02,1.866409249999999815e+02,1.984347500000000082e+02,2.105418750000000045e+02,2.263052250000000072e+02,2.473626500000000021e+02,2.900815000000000055e+02,3.459427500000000464e+02,3.830885499999999979e+02,4.288162499999999682e+02,5.033730500000000347e+02,5.837998000000000047e+02,5.905600999999999203e+02,5.256860000000000355e+02,5.022004500000000462e+02,5.379719999999999800e+02,5.776078999999999724e+02,6.014906499999999596e+02,6.240267999999999802e+02,6.658040499999999611e+02,6.645222750000000360e+02,6.110556750000000648e+02,6.378494500000000471e+02,7.304318499999999403e+02,8.152846250000000055e+02,8.931421749999999520e+02,1.008487024999999903e+03,1.129888249999999971e+03,1.191205500000000029e+03,1.285701500000000124e+03,1.375253999999999905e+03,1.424963749999999891e+03,1.474517000000000053e+03,1.518808250000000044e+03,1.579006250000000136e+03,1.634387249999999995e+03,1.645647000000000162e+03,1.667985999999999876e+03,1.757907750000000078e+03,1.869254750000000058e+03,1.952682999999999993e+03,2.015422000000000025e+03,2.143024249999999938e+03,2.326875000000000000e+03,2.472861249999999927e+03,2.412746000000000095e+03,2.189953999999999724e+03,2.150590999999999894e+03,2.213160250000000360e+03,2.298652500000000146e+03,nan,nan,nan,nan,nan,nan,nan
nan,nan,nan,nan,nan,nan,nan,nan,nan,nan,nan,nan,nan,nan,1.644546250000000100e+03,1.479564499999999953e+03,1.431675250000000005e+03,1.445889250000000175e+03,1.498809499999999844e+03,1.603895749999999907e+03,1.684240499999999884e+03,1.673005000000000109e+03,1.636165250000000015e+03,1.502565000000000055e+03,1.334067250000000058e+03,1.177265824999999950e+03,1.065709825000000137e+03,9.074806499999999687e+02,8.011180249999999887e+02,7.524074000000000524e+02,7.158802000000000589e+02,7.160700249999999869e+02,6.618079749999999422e+02,6.162001749999999447e+02,5.634887999999999693e+02,5.088089999999999691e+02,4.749002249999999776e+02,4.172786749999999643e+02,3.789509499999999775e+02,4.095233249999999998e+02,4.227673500000000217e+02,4.232415500000000179e+02,4.272112000000000194e+02,3.846550750000000107e+02,3.432593749999999773e+02,3.208384499999999662e+02,3.060571750000000293e+02,2.951893499999999904e+02,2.824458999999999946e+02,2.704427499999999895e+02,2.536678499999999872e+02,2.435241999999999791e+02,2.341915000000000191e+02,2.328810250000000224e+02,2.284501750000000015e+02,2.114604999999999961e+02,2.116816750000000127e+02,2.266729500000000144e+02,2.320469499999999812e+02,2.276302000000000021e+02,2.241934249999999906e+02,2.235747000000000071e+02,2.230783749999999941e+02,2.196341250000000116e+02,2.110803999999999974e+02,2.035626750000000129e+02,2.013837500000000205e+02,1.931929000000000087e+02,1.812146999999999935e+02,1.807419500000000312e+02,1.886595000000000084e+02,1.967239000000000146e+02,2.100864250000000197e+02,2.129856500000000210e+02,1.890848999999999762e+02,1.550201999999999884e+02,1.403914750000000140e+02,1.336145500000000084e+02,1.217384250000000065e+02,1.156426499999999891e+02,1.244954000000000036e+02,1.348172250000000076e+02,1.300152249999999867e+02,1.366323500000000024e+02,1.510613250000000107e+02,1.578624250000000018e+02,1.663482500000000073e+02,1.764134249999999895e+02,1.881035249999999905e+02,2.012101499999999987e+02,2.097917750000000012e+02,2.247827500000000214e+02,2.405865000000000009e+02,2.553732249999999908e+02,2.921961750000000393e+02,3.396629750000000172e+02,3.862888000000000375e+02,4.508731750000000034e+02,5.364609000000000378e+02,6.207045250000001033e+02,6.295929999999999609e+02,5.751735999999999649e+02,5.369598500000000740e+02,5.398912500000000136e+02,5.846695499999999583e+02,6.399939749999999776e+02,6.722595499999999902e+02,7.043257249999999203e+02,7.432918250000000171e+02,6.790170749999999771e+02,6.217138999999999669e+02,6.998514000000000124e+02,8.024248999999999796e+02,9.181134250000000065e+02,1.064374125000000049e+03,1.189932000000000016e+03,1.286340999999999894e+03,1.389909999999999854e+03,1.471488749999999982e+03,1.524913749999999936e+03,1.566562500000000000e+03,1.609370750000000044e+03,1.664119999999999891e+03,1.704845249999999851e+03,1.711022249999999985e+03,1.731005249999999933e+03,1.781087250000000040e+03,1.880237499999999955e+03,1.980005750000000035e+03,2.040523250000000189e+03,2.149173749999999927e+03,2.266122500000000400e+03,2.340268500000000131e+03,2.255555499999999938e+03,2.062206750000000284e+03,2.023174499999999853e+03,2.128625750000000153e+03,2.210254249999999956e+03,nan,nan,nan,nan,nan,nan,nan
nan,nan,nan,nan,nan,nan,nan,nan,nan,nan,nan,nan,nan,nan,1.695834250000000111e+03,1.538909000000000106e+03,1.429314250000000129e+03,1.354753750000000082e+03,1.354355749999999944e+03,1.509120249999999942e+03,1.577697499999999764e+03,1.635644250000000284e+03,1.770449500000000171e+03,1.673157249999999976e+03,1.432461250000000064e+03,1.256387999999999920e+03,1.108266099999999824e+03,9.326496499999999514e+02,8.415844250000000102e+02,7.764623500000000149e+02,6.958219000000000278e+02,6.794768750000000637e+02,6.950965499999999793e+02,6.715693999999999733e+02,6.062447250000000167e+02,5.217807249999999613e+02,4.514012249999999540e+02,4.241133500000000254e+02,4.270607249999999908e+02,4.137009499999999775e+02,3.942759499999999662e+02,3.887044249999999579e+02,3.895792999999999893e+02,3.808596249999999941e+02,3.486420249999999896e+02,3.209295250000000124e+02,3.150995249999999714e+02,3.030897499999999809e+02,2.850335000000000036e+02,2.680723000000000411e+02,2.580247749999999769e+02,2.478049499999999910e+02,2.292295000000000016e+02,2.299125750000000039e+02,2.205523249999999962e+02,2.117365250000000003e+02,2.341681250000000034e+02,2.501495250000000112e+02,2.491054000000000030e+02,2.398160500000000184e+02,2.343159250000000213e+02,2.316536750000000211e+02,2.232335249999999860e+02,2.179376000000000033e+02,2.153590250000000026e+02,2.070184999999999889e+02,2.031890749999999741e+02,2.003701250000000016e+02,1.902891750000000002e+02,1.839782999999999902e+02,1.926385250000000156e+02,2.059830750000000137e+02,2.085142500000000041e+02,1.981045000000000016e+02,1.756040249999999787e+02,1.479731250000000102e+02,1.286414500000000203e+02,1.233910000000000053e+02,1.239874499999999955e+02,1.365078249999999969e+02,1.535970250000000021e+02,1.515648500000000070e+02,1.319434149999999875e+02,1.417593650000000025e+02,1.680620749999999930e+02,1.743431999999999675e+02,1.785613999999999919e+02,1.871275499999999852e+02,1.983435750000000155e+02,2.072313250000000266e+02,2.115726250000000164e+02,2.239052499999999952e+02,2.382529499999999985e+02,2.559482500000000300e+02,2.961289500000000317e+02,3.473774750000000040e+02,4.008105999999999653e+02,4.724823250000000030e+02,5.722052750000000287e+02,7.107490999999999985e+02,7.340801249999999527e+02,6.312100249999999733e+02,5.676058749999999691e+02,5.598955250000000206e+02,5.736562750000000506e+02,6.082334749999999985e+02,6.674292249999999740e+02,7.395799250000000029e+02,7.999242249999999785e+02,7.496847250000000713e+02,6.850751999999999953e+02,6.849079750000000786e+02,8.195467500000000882e+02,1.019127700000000004e+03,1.131610000000000127e+03,1.232528249999999844e+03,1.330023249999999962e+03,1.398807500000000118e+03,1.443543750000000045e+03,1.497753499999999804e+03,1.553257750000000215e+03,1.594596750000000156e+03,1.631884499999999889e+03,1.683843750000000000e+03,1.744653999999999996e+03,1.778037749999999960e+03,1.794152000000000044e+03,1.911573499999999967e+03,2.056144249999999829e+03,2.114411749999999756e+03,2.172100750000000062e+03,2.212328249999999571e+03,2.239239999999999782e+03,2.167753249999999753e+03,1.954809250000000247e+03,1.970240249999999833e+03,2.219629750000000058e+03,2.253414999999999964e+03,nan,nan,nan,nan,nan,nan,nan
nan,nan,nan,nan,nan,nan,nan,nan,nan,nan,nan,nan,nan,nan,1.797869749999999840e+03,1.686541999999999916e+03,1.501693500000000313e+03,1.333826999999999998e+03,1.304154750000000149e+03,1.442136500000000069e+03,1.445045249999999896e+03,1.459285000000000082e+03,1.662824500000000171e+03,1.734318250000000035e+03,1.517983000000000175e+03,1.261238749999999982e+03,1.121005850000000009e+03,1.018253950000000032e+03,9.353444749999999885e+02,8.611802250000000640e+02,7.549655999999999949e+02,6.403941250000000309e+02,6.085775750000000244e+02,6.382405250000000478e+02,6.268303499999999531e+02,5.617743499999999131e+02,4.776408000000000129e+02,4.285873000000000275e+02,4.394735000000000582e+02,4.230566000000000031e+02,3.902499499999999557e+02,3.742187749999999937e+02,3.628036250000000109e+02,3.579204499999999598e+02,3.413346999999999980e+02,3.262203000000000088e+02,3.155159999999999627e+02,2.993047249999999622e+02,2.821247250000000122e+02,2.624088249999999789e+02,2.445083750000000009e+02,2.359461499999999887e+02,2.305121499999999912e+02,2.314381750000000011e+02,2.226728749999999764e+02,2.364851999999999919e+02,2.635276999999999816e+02,2.623613750000000095e+02,2.497879500000000235e+02,2.365033500000000117e+02,2.298454750000000217e+02,2.227995999999999981e+02,2.153927249999999844e+02,2.151622750000000224e+02,2.094814499999999953e+02,1.996781000000000006e+02,1.984955249999999864e+02,1.927068500000000029e+02,1.829703749999999900e+02,1.806662249999999972e+02,1.887537500000000250e+02,1.973976499999999987e+02,1.880852000000000146e+02,1.729145499999999913e+02,1.593811999999999784e+02,1.384417250000000195e+02,1.213113750000000124e+02,1.184765999999999906e+02,1.196322499999999849e+02,1.273869299999999924e+02,1.344000550000000089e+02,1.329852999999999952e+02,1.448310899999999890e+02,1.754829650000000072e+02,1.954335250000000030e+02,1.886913499999999999e+02,1.871141000000000076e+02,1.896123249999999985e+02,1.904021000000000186e+02,1.984474749999999972e+02,2.122229500000000257e+02,2.293970500000000357e+02,2.490808499999999981e+02,2.737817999999999756e+02,3.219834500000000048e+02,3.717559750000000349e+02,4.151238250000000107e+02,4.889068249999999125e+02,5.913969500000000608e+02,7.466358249999999543e+02,7.671184000000000651e+02,6.474165000000000418e+02,5.998324249999999438e+02,5.982284250000000156e+02,5.994778999999999769e+02,6.011879999999999882e+02,6.316555749999999989e+02,7.023514000000000124e+02,7.667486000000000104e+02,7.918376499999999396e+02,8.045561750000000529e+02,7.644791500000000042e+02,7.881928499999999076e+02,9.862939249999999447e+02,1.152357250000000022e+03,1.239644000000000005e+03,1.302859999999999900e+03,1.352113499999999931e+03,1.409461250000000064e+03,1.469108000000000175e+03,1.533853749999999991e+03,1.569112999999999829e+03,1.584756750000000011e+03,1.660588999999999942e+03,1.769076500000000124e+03,1.808229749999999967e+03,1.820682000000000244e+03,1.937940500000000156e+03,2.088010749999999916e+03,2.122292750000000069e+03,2.111445249999999760e+03,2.117413499999999658e+03,2.130560500000000047e+03,2.079353249999999662e+03,1.871377250000000004e+03,1.927874249999999847e+03,2.246435999999999694e+03,2.238359499999999571e+03,nan,nan,nan,nan,nan,nan,nan
nan,nan,nan,nan,nan,nan,nan,nan,nan,nan,nan,nan,nan,nan,1.755323499999999967e+03,1.629441000000000258e+03,1.459599500000000035e+03,1.281604250000000093e+03,1.229318999999999960e+03,1.288769749999999931e+03,1.333472999999999956e+03,1.395224249999999984e+03,1.508130499999999984e+03,1.630270749999999907e+03,1.591691249999999854e+03,1.387335250000000087e+03,1.251617749999999887e+03,1.148977774999999838e+03,1.020710574999999949e+03,9.276418499999999767e+02,8.535156999999999243e+02,7.200945749999999634e+02,5.894970500000000584e+02,5.861332999999999629e+02,6.105593499999999949e+02,5.935868749999999636e+02,5.548058750000000146e+02,4.631131749999999556e+02,4.255943250000000262e+02,4.628320750000000317e+02,4.655098749999999654e+02,4.238233500000000049e+02,3.817685500000000047e+02,3.639399250000000166e+02,3.368847499999999968e+02,3.034144250000000511e+02,2.867269499999999880e+02,2.822257749999999987e+02,2.776754250000000184e+02,2.523380750000000035e+02,2.313713999999999942e+02,2.369796499999999924e+02,2.449223749999999882e+02,2.476672250000000020e+02,2.497199999999999704e+02,2.636711500000000115e+02,2.708444000000000074e+02,2.578771749999999656e+02,2.390129750000000115e+02,2.305987000000000080e+02,2.285441250000000082e+02,2.182698500000000195e+02,2.014077500000000214e+02,1.924917749999999899e+02,1.880589749999999754e+02,1.823871749999999849e+02,1.825249000000000024e+02,1.781498250000000212e+02,1.670632750000000044e+02,1.697078250000000139e+02,1.815392750000000035e+02,1.806386749999999779e+02,1.691704000000000008e+02,1.590346000000000117e+02,1.489652000000000100e+02,1.309256750000000125e+02,1.140141249999999928e+02,1.101276749999999964e+02,1.094275750000000045e+02,1.066268299999999982e+02,1.200893550000000118e+02,1.484449249999999836e+02,1.698956249999999955e+02,1.948079250000000116e+02,2.182164249999999868e+02,2.073915250000000015e+02,2.013175750000000050e+02,2.040683249999999873e+02,2.010970250000000021e+02,2.108318000000000154e+02,2.325397250000000327e+02,2.575311749999999620e+02,2.723277500000000373e+02,3.058765999999999963e+02,3.506753749999999741e+02,3.837445750000000544e+02,4.294596000000000231e+02,4.932788749999999709e+02,5.600451249999999845e+02,6.372486250000000609e+02,6.465837500000000091e+02,5.981544250000000602e+02,5.889251750000000811e+02,6.020962749999999915e+02,6.223191000000000486e+02,6.260522500000000719e+02,6.336541499999999587e+02,6.744963999999999942e+02,7.603498999999999342e+02,8.486151750000000220e+02,8.796037250000000540e+02,8.714446250000000873e+02,8.053247750000000451e+02,8.584961499999999432e+02,1.053316299999999956e+03,1.180093500000000176e+03,1.223152749999999969e+03,1.284652000000000044e+03,1.374294750000000022e+03,1.429038999999999987e+03,1.470120249999999942e+03,1.522195249999999987e+03,1.579211249999999836e+03,1.658401250000000118e+03,1.751900750000000016e+03,1.794144499999999880e+03,1.815992250000000013e+03,1.908670000000000073e+03,2.019605750000000171e+03,2.012098750000000109e+03,1.992590749999999844e+03,2.014288999999999987e+03,2.026848999999999933e+03,2.002691250000000082e+03,1.863749749999999949e+03,1.888868249999999989e+03,2.064519250000000284e+03,2.080646000000000186e+03,nan,nan,nan,nan,nan,nan,nan
nan,nan,nan,nan,nan,nan,nan,nan,nan,nan,nan,nan,nan,nan,1.631579999999999927e+03,1.408124749999999949e+03,1.350611499999999978e+03,1.327479000000000042e+03,1.245865999999999985e+03,1.196436500000000024e+03,1.247826999999999998e+03,1.336322000000000116e+03,1.417197250000000167e+03,1.492788250000000062e+03,1.568827499999999873e+03,1.553543249999999944e+03,1.451908750000000055e+03,1.281489000000000033e+03,1.098686024999999972e+03,9.594801999999999680e+02,8.697658999999999878e+02,7.965666000000001077e+02,6.455778749999999491e+02,5.661044749999999794e+02,5.591981749999999920e+02,5.668955750000000080e+02,5.709670750000000226e+02,4.924476250000000164e+02,4.521799499999999625e+02,4.824728000000000065e+02,4.684637250000000108e+02,4.262989999999999782e+02,3.925505249999999933e+02,3.783629250000000184e+02,3.510172000000000025e+02,3.179707250000000158e+02,2.970729000000000042e+02,2.764581749999999829e+02,2.737471999999999639e+02,2.562855999999999881e+02,2.425216750000000161e+02,2.590433749999999691e+02,2.679443749999999795e+02,2.656966249999999832e+02,2.705720749999999839e+02,2.712708250000000021e+02,2.594707999999999970e+02,2.366826250000000016e+02,2.209856499999999926e+02,2.203125999999999749e+02,2.286990499999999997e+02,2.231318750000000080e+02,2.025508499999999970e+02,1.905216500000000224e+02,1.830295250000000351e+02,1.714134250000000179e+02,1.672508249999999919e+02,1.697660000000000196e+02,1.585436500000000137e+02,1.591689499999999953e+02,1.751764249999999947e+02,1.731555000000000177e+02,1.628416249999999934e+02,1.573001000000000147e+02,1.438103750000000218e+02,1.209692250000000087e+02,1.048113000000000028e+02,1.036409500000000037e+02,1.101562749999999937e+02,1.176165499999999895e+02,1.419880499999999870e+02,1.794396750000000225e+02,1.953437000000000126e+02,2.151335750000000075e+02,2.440104000000000042e+02,2.414808249999999816e+02,2.342887749999999869e+02,2.363047499999999559e+02,2.441805750000000046e+02,2.581531750000000329e+02,2.756476999999999862e+02,2.853037249999999858e+02,3.042263750000000186e+02,3.526009500000000116e+02,3.678621999999999730e+02,3.634422500000000582e+02,3.816184749999999894e+02,4.231242750000000115e+02,4.788977749999999673e+02,5.310203999999999951e+02,5.655344250000000557e+02,5.803776249999999663e+02,5.991390999999999849e+02,6.181934750000000349e+02,6.437769000000000688e+02,6.760804500000000417e+02,6.798965249999999969e+02,7.101651500000000397e+02,7.908424750000000358e+02,8.428365750000000389e+02,8.627163499999999203e+02,9.060917499999999336e+02,9.208466750000000047e+02,8.742397999999999456e+02,9.224312750000000278e+02,1.018264550000000099e+03,1.056051750000000084e+03,1.115602075000000013e+03,1.223934749999999894e+03,1.351148000000000138e+03,1.448892499999999927e+03,1.533106250000000045e+03,1.618950000000000045e+03,1.678810999999999922e+03,1.724337249999999813e+03,1.787441000000000031e+03,1.849337250000000040e+03,1.896211749999999938e+03,1.914947499999999991e+03,1.896512500000000045e+03,1.944176999999999907e+03,1.953944500000000062e+03,1.939611750000000029e+03,1.958574250000000120e+03,1.829334249999999884e+03,1.796564499999999953e+03,1.907524750000000040e+03,1.959357999999999947e+03,nan,nan,nan,nan,nan,nan,nan
nan,nan,nan,nan,nan,nan,nan,nan,nan,nan,nan,nan,nan,nan,1.582833250000000135e+03,1.389001749999999902e+03,1.464199499999999944e+03,1.527688000000000102e+03,1.418978749999999991e+03,1.224568499999999858e+03,1.158760749999999916e+03,1.190769500000000107e+03,1.271129500000000007e+03,1.376007499999999936e+03,1.525513500000000022e+03,1.703346749999999929e+03,1.663793749999999818e+03,1.434405250000000024e+03,1.198414999999999964e+03,1.034386950000000070e+03,8.879433249999999589e+02,7.814525499999999738e+02,7.164958000000000311e+02,6.113746750000000247e+02,5.173505499999999984e+02,5.062611749999999802e+02,4.974450500000000375e+02,4.549035499999999956e+02,4.526945999999999799e+02,4.633708250000000248e+02,4.332889999999999873e+02,4.239429999999999836e+02,4.220890500000000429e+02,3.946419999999999959e+02,3.613812249999999722e+02,3.509977250000000026e+02,3.411965250000000083e+02,2.962809750000000122e+02,2.665023249999999848e+02,2.595701999999999998e+02,2.616462999999999965e+02,2.790495750000000044e+02,2.834273249999999962e+02,2.682825749999999516e+02,2.631893749999999841e+02,2.589584500000000276e+02,2.397129000000000190e+02,2.194927999999999884e+02,2.140254999999999939e+02,2.134206250000000011e+02,2.094039500000000089e+02,2.034616749999999854e+02,1.982676750000000254e+02,1.940059750000000065e+02,1.872518249999999966e+02,1.718668499999999995e+02,1.677981000000000051e+02,1.662469499999999982e+02,1.556279499999999985e+02,1.497269000000000005e+02,1.560150750000000244e+02,1.619105250000000069e+02,1.548500999999999976e+02,1.483569750000000056e+02,1.487217499999999859e+02,1.263444824999999980e+02,1.005516074999999887e+02,1.048304249999999911e+02,1.106829749999999990e+02,1.210786750000000040e+02,1.567485500000000229e+02,2.048424499999999853e+02,2.393617499999999723e+02,2.604759750000000054e+02,2.744503000000000270e+02,2.786253000000000384e+02,2.736066000000000145e+02,2.731220999999999890e+02,2.993770749999999907e+02,3.295455499999999915e+02,3.509812999999999761e+02,3.592293000000000234e+02,3.497486499999999978e+02,3.831354999999999791e+02,4.154851249999999823e+02,3.966106000000000336e+02,3.744131000000000427e+02,3.709362750000000233e+02,4.402376500000000306e+02,5.205828999999999951e+02,5.388839249999999765e+02,5.708528249999999389e+02,6.243296000000000276e+02,6.588406750000000329e+02,6.989281250000000227e+02,7.424044249999999465e+02,7.419251000000000431e+02,7.564174000000000433e+02,7.823389500000000680e+02,7.860578249999999798e+02,8.273052249999999503e+02,8.946727750000001151e+02,9.758258250000000089e+02,9.970865999999999758e+02,9.811682250000000067e+02,1.008612300000000005e+03,1.033542999999999893e+03,1.019738624999999956e+03,1.071487300000000005e+03,1.228611750000000029e+03,1.407116250000000036e+03,1.553336250000000064e+03,1.667145999999999958e+03,1.763400000000000091e+03,1.805876749999999902e+03,1.876105500000000120e+03,1.937635500000000093e+03,1.903815000000000055e+03,1.824090249999999969e+03,1.824729499999999916e+03,1.868317749999999933e+03,1.842579000000000178e+03,1.864939750000000004e+03,1.897365750000000162e+03,1.733014500000000226e+03,1.686265750000000253e+03,1.850711499999999887e+03,1.902996250000000146e+03,nan,nan,nan,nan,nan,nan,nan
nan,nan,nan,nan,nan,nan,nan,nan,nan,nan,nan,nan,nan,nan,nan,1.537170749999999771e+03,1.744150000000000091e+03,1.731085000000000264e+03,1.534407749999999851e+03,1.340226249999999709e+03,1.173379750000000058e+03,1.134862000000000080e+03,1.258840999999999894e+03,1.399529250000000047e+03,1.565132249999999885e+03,1.764488749999999982e+03,1.773463749999999891e+03,1.662589249999999993e+03,1.465138249999999971e+03,1.180278749999999945e+03,9.575760500000000093e+02,7.716448000000000320e+02,7.063284249999999247e+02,6.483166499999999814e+02,5.597214249999999538e+02,5.131581999999999653e+02,4.834753500000000486e+02,4.616250750000000380e+02,4.587968750000000000e+02,4.667156499999999824e+02,4.397213250000000357e+02,4.488553999999999746e+02,4.565869000000000142e+02,4.133358000000000061e+02,3.721997999999999820e+02,3.535194000000000187e+02,3.452815750000000321e+02,3.050138749999999845e+02,2.671609500000000139e+02,2.809349250000000211e+02,2.895076000000000249e+02,2.864986250000000041e+02,2.786795749999999998e+02,2.524837749999999801e+02,2.552213249999999789e+02,2.583177749999999833e+02,2.339064500000000066e+02,2.191869250000000022e+02,2.166572999999999922e+02,2.203896750000000111e+02,2.028650749999999903e+02,1.865575500000000204e+02,1.815186500000000080e+02,1.732655499999999904e+02,1.678195249999999987e+02,1.566899250000000166e+02,1.584086250000000007e+02,1.580018499999999904e+02,1.538347499999999854e+02,1.456609500000000139e+02,1.348975000000000080e+02,1.404577750000000265e+02,1.461858500000000163e+02,1.484565000000000055e+02,1.505180499999999881e+02,1.253788299999999793e+02,1.000560774999999865e+02,1.057811224999999951e+02,1.032865500000000054e+02,1.173264499999999941e+02,1.664456250000000068e+02,2.135401249999999891e+02,2.455568500000000256e+02,2.700161249999999882e+02,2.866462250000000154e+02,3.046592249999999922e+02,3.161482000000000312e+02,3.343032249999999976e+02,3.786700749999999971e+02,3.992722750000000360e+02,4.072407249999999976e+02,4.260772499999999923e+02,4.114246750000000361e+02,4.057598500000000286e+02,4.366153250000000412e+02,4.527520250000000033e+02,4.572928500000000440e+02,4.479230999999999767e+02,4.566809499999999957e+02,5.253072750000000042e+02,5.674808500000000322e+02,5.837887249999999995e+02,6.236464750000000095e+02,6.556677499999999554e+02,7.069168250000000171e+02,7.443544249999999920e+02,7.638821749999999611e+02,7.945941749999999502e+02,8.113257250000000340e+02,8.084020499999999174e+02,8.406845500000000584e+02,8.864335500000000820e+02,9.543290250000000015e+02,1.032289749999999913e+03,1.053898249999999962e+03,1.101135749999999916e+03,1.136628250000000207e+03,1.134534300000000030e+03,1.158129300000000057e+03,1.194494500000000016e+03,1.299798750000000155e+03,1.428052749999999833e+03,1.543650999999999840e+03,1.677470499999999902e+03,1.777254999999999882e+03,1.875755499999999984e+03,1.908384999999999991e+03,1.816765750000000025e+03,1.735014750000000049e+03,1.758232750000000124e+03,1.757229250000000093e+03,1.776478250000000116e+03,1.825017749999999978e+03,1.780852750000000015e+03,1.641407749999999851e+03,1.669702750000000151e+03,1.844244500000000016e+03,nan,nan,nan,nan,nan,nan,nan,nan
nan,nan,nan,nan,nan,nan,nan,nan,nan,nan,nan,nan,nan,nan,nan,1.657614750000000186e+03,1.743899750000000040e+03,1.769737250000000131e+03,1.642750250000000051e+03,1.481311000000000149e+03,1.239989250000000084e+03,1.127938249999999925e+03,1.241637749999999869e+03,1.390350499999999784e+03,1.545023249999999962e+03,1.674336749999999938e+03,1.645336499999999887e+03,1.565419999999999845e+03,1.502473999999999933e+03,1.289709749999999985e+03,1.012448624999999993e+03,7.676982749999999669e+02,6.525177999999999656e+02,6.410386750000000120e+02,6.088025750000000471e+02,5.729303250000000389e+02,5.294172250000000304e+02,5.065801999999999907e+02,4.824111749999999574e+02,4.433344999999999914e+02,4.522363249999999653e+02,4.679841249999999491e+02,4.586200999999999794e+02,4.110514249999999947e+02,3.680681250000000091e+02,3.420089750000000208e+02,3.084669499999999971e+02,2.813746750000000247e+02,2.805676250000000209e+02,2.998322000000000003e+02,2.880139999999999532e+02,2.729318000000000097e+02,2.606520499999999743e+02,2.384596999999999980e+02,2.386742999999999881e+02,2.414994749999999897e+02,2.336824499999999887e+02,2.240063000000000102e+02,2.132584999999999980e+02,2.044118499999999869e+02,1.930847750000000076e+02,1.885909250000000270e+02,1.787424249999999688e+02,1.703710749999999905e+02,1.664564249999999959e+02,1.589244500000000073e+02,1.558171749999999918e+02,1.459886999999999944e+02,1.374963249999999846e+02,1.354658000000000015e+02,1.266824249999999950e+02,1.268035500000000013e+02,1.376225749999999834e+02,1.460026250000000232e+02,1.488419000000000096e+02,1.233289500000000061e+02,9.552314499999999953e+01,1.048758699999999919e+02,1.196667750000000012e+02,1.391763500000000136e+02,1.746875000000000000e+02,2.073019249999999829e+02,2.396064000000000078e+02,2.620590750000000071e+02,2.862898249999999507e+02,3.657359249999999520e+02,3.942469000000000392e+02,3.808902499999999804e+02,3.982977500000000077e+02,4.026816499999999905e+02,4.122696499999999560e+02,4.331738000000000284e+02,4.655488250000000221e+02,4.694064250000000129e+02,4.645617250000000240e+02,4.814635250000000042e+02,4.945972750000000246e+02,5.214466500000000906e+02,5.096668000000000802e+02,5.034744000000000028e+02,5.485582249999999931e+02,5.937677250000000413e+02,6.328631000000000313e+02,6.754043749999999591e+02,7.103891250000000355e+02,7.160581999999999425e+02,7.572366500000000542e+02,8.259820999999999458e+02,8.703726500000000215e+02,8.903043250000000626e+02,9.157386750000000575e+02,9.395470000000000255e+02,9.732494250000000875e+02,1.028788624999999911e+03,1.077534499999999980e+03,1.114372500000000173e+03,1.155071750000000065e+03,1.238240500000000111e+03,1.305587999999999965e+03,1.326333000000000084e+03,1.336848500000000058e+03,1.346783750000000055e+03,1.406984500000000025e+03,1.494458750000000009e+03,1.584603250000000116e+03,1.673327250000000049e+03,1.727755750000000035e+03,1.670563999999999851e+03,1.628749499999999898e+03,1.649228000000000065e+03,1.691516500000000178e+03,1.777975499999999784e+03,1.835050999999999931e+03,1.761693749999999909e+03,1.587486249999999927e+03,1.658290250000000015e+03,1.835903499999999894e+03,nan,nan,nan,nan,nan,nan,nan,nan
nan,nan,nan,nan,nan,nan,nan,nan,nan,nan,nan,nan,nan,nan,1.726067000000000007e+03,1.640953250000000025e+03,1.531312249999999949e+03,1.543655500000000075e+03,1.546353750000000218e+03,1.495894749999999931e+03,1.308663000000000011e+03,1.118482375000000047e+03,1.043168825000000197e+03,1.184612200000000030e+03,1.352491749999999911e+03,1.489428499999999985e+03,1.472107750000000124e+03,1.265362499999999955e+03,1.154854274999999916e+03,1.059254575000000159e+03,8.554577749999999696e+02,6.594498499999999694e+02,6.179303250000000389e+02,6.364707499999999527e+02,6.206507000000000289e+02,5.961201999999999543e+02,5.023531499999999141e+02,4.398606500000000779e+02,4.313241250000000377e+02,3.852278499999999894e+02,3.901164999999999736e+02,3.895259250000000293e+02,3.948683749999999577e+02,4.032355999999999767e+02,3.573958250000000021e+02,3.117436500000000024e+02,2.912424499999999625e+02,2.889777000000000271e+02,2.841087249999999926e+02,2.753686999999999898e+02,2.603845999999999776e+02,2.522641500000000008e+02,2.516623749999999973e+02,2.370181000000000040e+02,2.219904999999999973e+02,2.159051499999999919e+02,2.167951250000000130e+02,2.201484250000000031e+02,2.220928000000000111e+02,2.060645000000000095e+02,1.891207750000000090e+02,1.808822250000000054e+02,1.725223249999999950e+02,1.755466499999999996e+02,1.757039499999999919e+02,1.674880500000000154e+02,1.539122000000000128e+02,1.375815249999999992e+02,1.301211500000000001e+02,1.293976250000000050e+02,1.207057000000000073e+02,1.204513000000000034e+02,1.229179249999999968e+02,1.294763250000000028e+02,1.440602999999999838e+02,1.291929524999999899e+02,1.039836750000000052e+02,1.096188975000000028e+02,1.206389250000000004e+02,1.379454749999999876e+02,1.675106749999999920e+02,1.948946249999999907e+02,2.335344499999999925e+02,2.723426749999999856e+02,3.076049999999999613e+02,3.839924500000000194e+02,3.923216250000000400e+02,3.543994749999999954e+02,3.618423000000000229e+02,3.852363750000000095e+02,4.204105250000000069e+02,4.481684999999999945e+02,4.865279750000000263e+02,5.171092750000000251e+02,5.331950749999999744e+02,5.390889500000000680e+02,5.339966500000000451e+02,5.561851999999998952e+02,5.790799749999999904e+02,5.332719999999999345e+02,5.393217499999999518e+02,5.982866749999999456e+02,6.436474249999999984e+02,7.035484249999999520e+02,7.307078250000000708e+02,7.509811250000000200e+02,8.002922499999999673e+02,8.353251999999999953e+02,8.633074750000000677e+02,8.993498500000000604e+02,9.192759499999999662e+02,9.656538749999999709e+02,1.014011374999999930e+03,1.066000375000000076e+03,1.138221000000000004e+03,1.172190250000000106e+03,1.213594250000000102e+03,1.280302500000000009e+03,1.344399249999999938e+03,1.428982999999999947e+03,1.495163000000000011e+03,1.488432749999999942e+03,1.471136250000000018e+03,1.482990000000000009e+03,1.488635250000000042e+03,1.507641500000000178e+03,1.560359249999999975e+03,1.564165500000000065e+03,1.554182249999999840e+03,1.575223500000000058e+03,1.656373499999999694e+03,1.742622250000000122e+03,1.819476750000000038e+03,1.743614250000000084e+03,1.549318499999999858e+03,1.616875250000000051e+03,1.793173000000000229e+03,nan,nan,nan,nan,nan,nan,nan,nan
